4.45074628e+00 4.52512440e+00 4.59882327e+00 4.67184289e+00 4.74418326e+00 4.81584437e+00 4.88682623e+00 4.95712884e+00 5.02675220e+00 5.09569630e+00 5.16396115e+00 5.23154675e+00 5.29845310e+00 5.36468019e+00 5.43022804e+00 5.49509663e+00 5.55928597e+00 5.62279605e+00 5.68562689e+00 5.74777847e+00 5.80925080e+00 5.87004387e+00 5.93015770e+00 5.98959227e+00 6.04834759e+00 6.10642366e+00 6.16382048e+00 6.22053804e+00 6.27657635e+00 6.33193541e+00 6.38661522e+00 6.44061577e+00 6.49393707e+00 6.54657912e+00 6.59854192e+00 6.64982547e+00 6.70042976e+00 6.75035480e+00 6.79960059e+00 6.84816713e+00 6.89605441e+00 6.94326244e+00 6.98979122e+00 7.03564075e+00 7.08081103e+00 7.12530205e+00 7.16911382e+00 7.21224634e+00 7.25469960e+00 7.29647362e+00 7.33756838e+00 7.37798389e+00 7.41772015e+00 7.45677715e+00 7.49515490e+00 7.53285340e+00 7.56987265e+00 7.60621265e+00 7.64187339e+00 7.67685488e+00 7.71115712e+00 7.74478011e+00 7.77772384e+00 7.80998832e+00 7.84157355e+00 7.87247953e+00 7.90270626e+00 7.93225373e+00 7.96112195e+00 7.98931092e+00 8.01682064e+00 8.04365110e+00 8.06980231e+00 8.09527427e+00 8.12006698e+00 8.14418044e+00 8.16761464e+00 8.19036959e+00 8.21244529e+00 8.23384173e+00 8.25455893e+00 8.27459687e+00 8.29395556e+00 8.31263500e+00 8.33063518e+00 8.34795611e+00 8.36459779e+00 8.38056022e+00 8.39584340e+00 8.41044732e+00 8.42437199e+00 8.43761741e+00 8.45018358e+00 8.46207049e+00 8.47327816e+00 8.48380657e+00 8.49365572e+00 8.50282563e+00 8.51131628e+00 8.51912768e+00 8.52625983e+00 8.53271273e+00 8.53848637e+00 8.54358076e+00 8.54799590e+00 8.55173179e+00 8.55478843e+00 8.58128327e+00 8.61354775e+00 8.64513298e+00 8.67603896e+00 8.70626569e+00 8.73581316e+00 8.76468138e+00 8.79287035e+00 8.82038007e+00 8.84721053e+00 8.87336174e+00 8.89883370e+00 8.92362641e+00 8.94773986e+00 8.97117407e+00 8.99392902e+00 9.01600472e+00 9.03740116e+00 9.05811836e+00 9.07815630e+00 9.09751499e+00 9.11619442e+00 9.13419461e+00 9.15151554e+00 9.16815722e+00 9.18411965e+00 9.19940283e+00 9.21400675e+00 9.22793142e+00 9.24117684e+00 9.25374301e+00 9.26562992e+00 9.27683758e+00 9.28736599e+00 9.29721515e+00 9.30638506e+00 9.31487571e+00 9.32268711e+00 9.32981926e+00 9.33627216e+00 9.34204580e+00 9.34714019e+00 9.35155533e+00 9.35529122e+00 9.35834785e+00 9.36072524e+00 9.36462911e+00 9.37040276e+00 9.37549715e+00 9.38130700e+00 9.38979766e+00 9.39760906e+00 9.40474121e+00 9.41119410e+00 9.41696775e+00 9.42206214e+00 9.42647728e+00 9.43021317e+00 9.43326980e+00 9.43564718e+00 9.43734532e+00 9.43836419e+00 9.43870382e+00 9.43836419e+00 9.43734532e+00 9.43564718e+00 9.43326980e+00 9.43021317e+00 9.42647728e+00 9.42206214e+00 9.41696775e+00 9.41119410e+00 9.40474121e+00 9.39760906e+00 9.38979766e+00 9.38130700e+00 9.37213710e+00 9.36228794e+00 9.35175953e+00 9.34055187e+00 9.32866495e+00 9.31801326e+00 9.30680560e+00 9.29545637e+00 9.28492796e+00 9.27372029e+00 9.26183338e+00 9.24926721e+00 9.23602179e+00 9.22209712e+00 9.20749320e+00 9.19221002e+00
4.44149957e+00 4.51587769e+00 4.58957656e+00 4.66259618e+00 4.73493655e+00 4.80659766e+00 4.87757952e+00 4.94788213e+00 5.01750549e+00 5.08644959e+00 5.15471444e+00 5.22230004e+00 5.28920639e+00 5.35543348e+00 5.42098133e+00 5.48584992e+00 5.55003926e+00 5.61354934e+00 5.67638018e+00 5.73853176e+00 5.80000409e+00 5.86079716e+00 5.92091099e+00 5.98034556e+00 6.03910088e+00 6.09717695e+00 6.15457377e+00 6.21129133e+00 6.26732964e+00 6.32268870e+00 6.37736851e+00 6.43136906e+00 6.48469036e+00 6.53733241e+00 6.58929521e+00 6.64057876e+00 6.69118305e+00 6.74110809e+00 6.79035388e+00 6.83892042e+00 6.88680770e+00 6.93401573e+00 6.98054451e+00 7.02639404e+00 7.07156432e+00 7.11605534e+00 7.15986711e+00 7.20299963e+00 7.24545289e+00 7.28722691e+00 7.32832167e+00 7.36873718e+00 7.40847344e+00 7.44753044e+00 7.48590819e+00 7.52360669e+00 7.56062594e+00 7.59696594e+00 7.63262668e+00 7.66760817e+00 7.70191041e+00 7.73553340e+00 7.76847713e+00 7.80074161e+00 7.83232684e+00 7.86323282e+00 7.89345955e+00 7.92300702e+00 7.95187524e+00 7.98006421e+00 8.00757393e+00 8.03440439e+00 8.06055560e+00 8.08602756e+00 8.11082027e+00 8.13493373e+00 8.15836793e+00 8.18112288e+00 8.20319858e+00 8.22459502e+00 8.24531222e+00 8.26535016e+00 8.28470885e+00 8.30338829e+00 8.32138847e+00 8.33870940e+00 8.35535108e+00 8.37131351e+00 8.38659669e+00 8.40120061e+00 8.41512528e+00 8.42837070e+00 8.44093687e+00 8.45282378e+00 8.46403145e+00 8.47455986e+00 8.48440901e+00 8.49357892e+00 8.50206957e+00 8.50988097e+00 8.51701312e+00 8.52346602e+00 8.52923966e+00 8.53433405e+00 8.53874919e+00 8.54248508e+00 8.54554172e+00 8.57546127e+00 8.60772575e+00 8.63931098e+00 8.67021696e+00 8.70044368e+00 8.72999116e+00 8.75885938e+00 8.78704835e+00 8.81455806e+00 8.84138853e+00 8.86753974e+00 8.89301170e+00 8.91780441e+00 8.94191786e+00 8.96535206e+00 8.98810701e+00 9.01018271e+00 9.03157916e+00 9.05229635e+00 9.07233430e+00 9.09169298e+00 9.11037242e+00 9.12837261e+00 9.14569354e+00 9.16233522e+00 9.17829765e+00 9.19358082e+00 9.20818475e+00 9.22210942e+00 9.23535484e+00 9.24792100e+00 9.25980792e+00 9.27101558e+00 9.28154399e+00 9.29139315e+00 9.30056305e+00 9.30905371e+00 9.31686511e+00 9.32399726e+00 9.33045015e+00 9.33622380e+00 9.34131819e+00 9.34573333e+00 9.34946922e+00 9.35252585e+00 9.35490323e+00 9.35660137e+00 9.35762024e+00 9.35795987e+00 9.36107640e+00 9.36616718e+00 9.37397858e+00 9.38111073e+00 9.38756362e+00 9.39333727e+00 9.39843166e+00 9.40284680e+00 9.40658269e+00 9.40963932e+00 9.41201670e+00 9.41371483e+00 9.41473371e+00 9.41507334e+00 9.41473371e+00 9.41371483e+00 9.41201670e+00 9.40963932e+00 9.40658269e+00 9.40284680e+00 9.39843166e+00 9.39333727e+00 9.38756362e+00 9.38111073e+00 9.37397858e+00 9.36616718e+00 9.35767652e+00 9.34850662e+00 9.33865746e+00 9.32812905e+00 9.31692139e+00 9.30503447e+00 9.29246831e+00 9.28112029e+00 9.26923338e+00 9.25855771e+00 9.24735005e+00 9.23546313e+00 9.22289697e+00 9.20965155e+00 9.19572688e+00 9.18112295e+00 9.16583978e+00
4.43156792e+00 4.50594604e+00 4.57964491e+00 4.65266453e+00 4.72500489e+00 4.79666601e+00 4.86764787e+00 4.93795048e+00 5.00757383e+00 5.07651794e+00 5.14478279e+00 5.21236839e+00 5.27927474e+00 5.34550183e+00 5.41104968e+00 5.47591827e+00 5.54010760e+00 5.60361769e+00 5.66644852e+00 5.72860011e+00 5.79007244e+00 5.85086551e+00 5.91097934e+00 5.97041391e+00 6.02916923e+00 6.08724530e+00 6.14464211e+00 6.20135968e+00 6.25739799e+00 6.31275705e+00 6.36743686e+00 6.42143741e+00 6.47475871e+00 6.52740076e+00 6.57936356e+00 6.63064711e+00 6.68125140e+00 6.73117644e+00 6.78042223e+00 6.82898876e+00 6.87687605e+00 6.92408408e+00 6.97061286e+00 7.01646239e+00 7.06163266e+00 7.10612369e+00 7.14993546e+00 7.19306798e+00 7.23552124e+00 7.27729526e+00 7.31839002e+00 7.35880553e+00 7.39854178e+00 7.43759879e+00 7.47597654e+00 7.51367504e+00 7.55069429e+00 7.58703429e+00 7.62269503e+00 7.65767652e+00 7.69197876e+00 7.72560175e+00 7.75854548e+00 7.79080996e+00 7.82239519e+00 7.85330117e+00 7.88352790e+00 7.91307537e+00 7.94194359e+00 7.97013256e+00 7.99764228e+00 8.02447274e+00 8.05062395e+00 8.07609591e+00 8.10088862e+00 8.12500207e+00 8.14843628e+00 8.17119123e+00 8.19326693e+00 8.21466337e+00 8.23538057e+00 8.25541851e+00 8.27477720e+00 8.29345663e+00 8.31145682e+00 8.32877775e+00 8.34541943e+00 8.36138186e+00 8.37666504e+00 8.39126896e+00 8.40519363e+00 8.41843905e+00 8.43100522e+00 8.44289213e+00 8.45409979e+00 8.46462820e+00 8.47447736e+00 8.48364727e+00 8.49213792e+00 8.49994932e+00 8.50708147e+00 8.51353437e+00 8.51930801e+00 8.52440240e+00 8.52881754e+00 8.53255343e+00 8.53601059e+00 8.56895432e+00 8.60121881e+00 8.63280404e+00 8.66371001e+00 8.69393674e+00 8.72348421e+00 8.75235243e+00 8.78054140e+00 8.80805112e+00 8.83488158e+00 8.86103279e+00 8.88650475e+00 8.91129746e+00 8.93541092e+00 8.95884512e+00 8.98160007e+00 9.00367577e+00 9.02507222e+00 9.04578941e+00 9.06582735e+00 9.08518604e+00 9.10386548e+00 9.12186566e+00 9.13918659e+00 9.15582828e+00 9.17179070e+00 9.18707388e+00 9.20167780e+00 9.21560247e+00 9.22884789e+00 9.24141406e+00 9.25330097e+00 9.26450864e+00 9.27503705e+00 9.28488620e+00 9.29405611e+00 9.30254676e+00 9.31035816e+00 9.31749031e+00 9.32394321e+00 9.32971685e+00 9.33481125e+00 9.33922638e+00 9.34296227e+00 9.34601891e+00 9.34839629e+00 9.35009442e+00 9.35111330e+00 9.35145293e+00 9.35111330e+00 9.35009442e+00 9.34966315e+00 9.35679530e+00 9.36324820e+00 9.36902184e+00 9.37411624e+00 9.37853137e+00 9.38226726e+00 9.38532390e+00 9.38770128e+00 9.38939941e+00 9.39041829e+00 9.39075792e+00 9.39041829e+00 9.38939941e+00 9.38770128e+00 9.38532390e+00 9.38226726e+00 9.37853137e+00 9.37411624e+00 9.36902184e+00 9.36324820e+00 9.35679530e+00 9.34966315e+00 9.34185175e+00 9.33336110e+00 9.32419119e+00 9.31434204e+00 9.30381363e+00 9.29260596e+00 9.28071905e+00 9.26815288e+00 9.25490746e+00 9.24286313e+00 9.23150252e+00 9.22029486e+00 9.20840794e+00 9.19584178e+00 9.18259636e+00 9.16867169e+00 9.15406776e+00 9.13878459e+00
4.42095133e+00 4.49532945e+00 4.56902832e+00 4.64204794e+00 4.71438830e+00 4.78604941e+00 4.85703128e+00 4.92733388e+00 4.99695724e+00 5.06590134e+00 5.13416620e+00 5.20175180e+00 5.26865814e+00 5.33488524e+00 5.40043308e+00 5.46530167e+00 5.52949101e+00 5.59300110e+00 5.65583193e+00 5.71798351e+00 5.77945584e+00 5.84024892e+00 5.90036274e+00 5.95979732e+00 6.01855264e+00 6.07662871e+00 6.13402552e+00 6.19074308e+00 6.24678140e+00 6.30214046e+00 6.35682026e+00 6.41082082e+00 6.46414212e+00 6.51678417e+00 6.56874697e+00 6.62003051e+00 6.67063481e+00 6.72055985e+00 6.76980564e+00 6.81837217e+00 6.86625946e+00 6.91346749e+00 6.95999627e+00 7.00584580e+00 7.05101607e+00 7.09550709e+00 7.13931886e+00 7.18245138e+00 7.22490465e+00 7.26667866e+00 7.30777342e+00 7.34818893e+00 7.38792519e+00 7.42698220e+00 7.46535995e+00 7.50305845e+00 7.54007770e+00 7.57641769e+00 7.61207844e+00 7.64705993e+00 7.68136217e+00 7.71498515e+00 7.74792889e+00 7.78019337e+00 7.81177860e+00 7.84268458e+00 7.87291130e+00 7.90245878e+00 7.93132700e+00 7.95951597e+00 7.98702568e+00 8.01385615e+00 8.04000736e+00 8.06547932e+00 8.09027203e+00 8.11438548e+00 8.13781968e+00 8.16057463e+00 8.18265033e+00 8.20404678e+00 8.22476397e+00 8.24480191e+00 8.26416060e+00 8.28284004e+00 8.30084023e+00 8.31816116e+00 8.33480284e+00 8.35076527e+00 8.36604844e+00 8.38065237e+00 8.39457704e+00 8.40782246e+00 8.42038862e+00 8.43227554e+00 8.44348320e+00 8.45401161e+00 8.46386077e+00 8.47303067e+00 8.48152133e+00 8.48933273e+00 8.49646488e+00 8.50291777e+00 8.50869142e+00 8.51378581e+00 8.51820095e+00 8.52193684e+00 8.52881870e+00 8.56176244e+00 8.59402692e+00 8.62561215e+00 8.65651813e+00 8.68674485e+00 8.71629233e+00 8.74516055e+00 8.77334952e+00 8.80085923e+00 8.82768970e+00 8.85384091e+00 8.87931287e+00 8.90410558e+00 8.92821903e+00 8.95165323e+00 8.97440819e+00 8.99648388e+00 9.01788033e+00 9.03859752e+00 9.05863547e+00 9.07799415e+00 9.09667359e+00 9.11467378e+00 9.13199471e+00 9.14863639e+00 9.16459882e+00 9.17988199e+00 9.19448592e+00 9.20841059e+00 9.22165601e+00 9.23422217e+00 9.24610909e+00 9.25731675e+00 9.26784516e+00 9.27769432e+00 9.28686422e+00 9.29535488e+00 9.30316628e+00 9.31029843e+00 9.31675132e+00 9.32252497e+00 9.32761936e+00 9.33203450e+00 9.33577039e+00 9.33882702e+00 9.34120440e+00 9.34290254e+00 9.34392141e+00 9.34426104e+00 9.34392141e+00 9.34290254e+00 9.34120440e+00 9.33882702e+00 9.33824783e+00 9.34402148e+00 9.34911587e+00 9.35353101e+00 9.35726690e+00 9.36032353e+00 9.36270092e+00 9.36439905e+00 9.36541793e+00 9.36575755e+00 9.36541793e+00 9.36439905e+00 9.36270092e+00 9.36032353e+00 9.35726690e+00 9.35353101e+00 9.34911587e+00 9.34402148e+00 9.33824783e+00 9.33179494e+00 9.32466279e+00 9.31685139e+00 9.30836074e+00 9.29919083e+00 9.28934167e+00 9.27881326e+00 9.26760560e+00 9.25571869e+00 9.24315252e+00 9.22990710e+00 9.21598243e+00 9.20376239e+00 9.19255473e+00 9.18066781e+00 9.16810165e+00 9.15485623e+00 9.14093156e+00 9.12632763e+00 9.11104446e+00
4.40964979e+00 4.48402791e+00 4.55772678e+00 4.63074640e+00 4.70308677e+00 4.77474788e+00 4.84572974e+00 4.91603235e+00 4.98565571e+00 5.05459981e+00 5.12286466e+00 5.19045026e+00 5.25735661e+00 5.32358370e+00 5.38913155e+00 5.45400014e+00 5.51818948e+00 5.58169956e+00 5.64453040e+00 5.70668198e+00 5.76815431e+00 5.82894738e+00 5.88906121e+00 5.94849578e+00 6.00725110e+00 6.06532717e+00 6.12272399e+00 6.17944155e+00 6.23547986e+00 6.29083892e+00 6.34551873e+00 6.39951928e+00 6.45284058e+00 6.50548263e+00 6.55744543e+00 6.60872898e+00 6.65933327e+00 6.70925831e+00 6.75850410e+00 6.80707064e+00 6.85495792e+00 6.90216595e+00 6.94869473e+00 6.99454426e+00 7.03971454e+00 7.08420556e+00 7.12801733e+00 7.17114985e+00 7.21360311e+00 7.25537713e+00 7.29647189e+00 7.33688740e+00 7.37662366e+00 7.41568066e+00 7.45405841e+00 7.49175691e+00 7.52877616e+00 7.56511616e+00 7.60077690e+00 7.63575839e+00 7.67006063e+00 7.70368362e+00 7.73662735e+00 7.76889184e+00 7.80047707e+00 7.83138304e+00 7.86160977e+00 7.89115724e+00 7.92002546e+00 7.94821443e+00 7.97572415e+00 8.00255461e+00 8.02870582e+00 8.05417778e+00 8.07897049e+00 8.10308395e+00 8.12651815e+00 8.14927310e+00 8.17134880e+00 8.19274524e+00 8.21346244e+00 8.23350038e+00 8.25285907e+00 8.27153851e+00 8.28953869e+00 8.30685962e+00 8.32350130e+00 8.33946373e+00 8.35474691e+00 8.36935083e+00 8.38327550e+00 8.39652092e+00 8.40908709e+00 8.42097400e+00 8.43218167e+00 8.44271008e+00 8.45255923e+00 8.46172914e+00 8.47021979e+00 8.47803119e+00 8.48516334e+00 8.49161624e+00 8.49738988e+00 8.50248427e+00 8.50689941e+00 8.51063530e+00 8.52094188e+00 8.55388561e+00 8.58615009e+00 8.61773532e+00 8.64864130e+00 8.67886803e+00 8.70841550e+00 8.73728372e+00 8.76547269e+00 8.79298241e+00 8.81981287e+00 8.84596408e+00 8.87143604e+00 8.89622875e+00 8.92034220e+00 8.94377641e+00 8.96653136e+00 8.98860706e+00 9.01000350e+00 9.03072070e+00 9.05075864e+00 9.07011733e+00 9.08879676e+00 9.10679695e+00 9.12411788e+00 9.14075956e+00 9.15672199e+00 9.17200517e+00 9.18660909e+00 9.20053376e+00 9.21377918e+00 9.22634535e+00 9.23823226e+00 9.24943992e+00 9.25996833e+00 9.26981749e+00 9.27898740e+00 9.28747805e+00 9.29528945e+00 9.30242160e+00 9.30887450e+00 9.31464814e+00 9.31974253e+00 9.32415767e+00 9.32789356e+00 9.33095019e+00 9.33332758e+00 9.33502571e+00 9.33604459e+00 9.33638421e+00 9.33604459e+00 9.33502571e+00 9.33332758e+00 9.33095019e+00 9.32789356e+00 9.32415767e+00 9.32343057e+00 9.32784570e+00 9.33158159e+00 9.33463823e+00 9.33701561e+00 9.33871374e+00 9.33973262e+00 9.34007225e+00 9.33973262e+00 9.33871374e+00 9.33701561e+00 9.33463823e+00 9.33158159e+00 9.32784570e+00 9.32343057e+00 9.31833617e+00 9.31256253e+00 9.30610963e+00 9.29897748e+00 9.29116608e+00 9.28267543e+00 9.27350552e+00 9.26365637e+00 9.25312796e+00 9.24192029e+00 9.23003338e+00 9.21746721e+00 9.20422179e+00 9.19029712e+00 9.17569320e+00 9.16412966e+00 9.15224274e+00 9.13967657e+00 9.12643116e+00 9.11250648e+00 9.09790256e+00 9.08261939e+00
4.39766331e+00 4.47204144e+00 4.54574031e+00 4.61875992e+00 4.69110029e+00 4.76276140e+00 4.83374326e+00 4.90404587e+00 4.97366923e+00 5.04261333e+00 5.11087819e+00 5.17846379e+00 5.24537013e+00 5.31159723e+00 5.37714507e+00 5.44201366e+00 5.50620300e+00 5.56971309e+00 5.63254392e+00 5.69469550e+00 5.75616783e+00 5.81696091e+00 5.87707473e+00 5.93650931e+00 5.99526463e+00 6.05334069e+00 6.11073751e+00 6.16745507e+00 6.22349339e+00 6.27885244e+00 6.33353225e+00 6.38753281e+00 6.44085411e+00 6.49349616e+00 6.54545896e+00 6.59674250e+00 6.64734679e+00 6.69727184e+00 6.74651762e+00 6.79508416e+00 6.84297145e+00 6.89017948e+00 6.93670826e+00 6.98255778e+00 7.02772806e+00 7.07221908e+00 7.11603085e+00 7.15916337e+00 7.20161664e+00 7.24339065e+00 7.28448541e+00 7.32490092e+00 7.36463718e+00 7.40369418e+00 7.44207194e+00 7.47977044e+00 7.51678969e+00 7.55312968e+00 7.58879043e+00 7.62377192e+00 7.65807416e+00 7.69169714e+00 7.72464088e+00 7.75690536e+00 7.78849059e+00 7.81939657e+00 7.84962329e+00 7.87917077e+00 7.90803899e+00 7.93622796e+00 7.96373767e+00 7.99056814e+00 8.01671935e+00 8.04219131e+00 8.06698402e+00 8.09109747e+00 8.11453167e+00 8.13728662e+00 8.15936232e+00 8.18075877e+00 8.20147596e+00 8.22151390e+00 8.24087259e+00 8.25955203e+00 8.27755222e+00 8.29487315e+00 8.31151483e+00 8.32747726e+00 8.34276043e+00 8.35736436e+00 8.37128903e+00 8.38453445e+00 8.39710061e+00 8.40898753e+00 8.42019519e+00 8.43072360e+00 8.44057276e+00 8.44974266e+00 8.45823332e+00 8.46604472e+00 8.47317687e+00 8.47962976e+00 8.48540341e+00 8.49049780e+00 8.49491294e+00 8.49864883e+00 8.51238011e+00 8.54532384e+00 8.57758832e+00 8.60917355e+00 8.64007953e+00 8.67030626e+00 8.69985373e+00 8.72872195e+00 8.75691092e+00 8.78442064e+00 8.81125110e+00 8.83740231e+00 8.86287427e+00 8.88766698e+00 8.91178044e+00 8.93521464e+00 8.95796959e+00 8.98004529e+00 9.00144173e+00 9.02215893e+00 9.04219687e+00 9.06155556e+00 9.08023500e+00 9.09823518e+00 9.11555611e+00 9.13219779e+00 9.14816022e+00 9.16344340e+00 9.17804732e+00 9.19197199e+00 9.20521741e+00 9.21778358e+00 9.22967049e+00 9.24087816e+00 9.25140657e+00 9.26125572e+00 9.27042563e+00 9.27891628e+00 9.28672768e+00 9.29385983e+00 9.30031273e+00 9.30608637e+00 9.31118076e+00 9.31559590e+00 9.31933179e+00 9.32238843e+00 9.32476581e+00 9.32646394e+00 9.32748282e+00 9.32782244e+00 9.32748282e+00 9.32646394e+00 9.32476581e+00 9.32238843e+00 9.31933179e+00 9.31559590e+00 9.31118076e+00 9.30608637e+00 9.30521134e+00 9.30826798e+00 9.31064536e+00 9.31234349e+00 9.31336237e+00 9.31370200e+00 9.31336237e+00 9.31234349e+00 9.31064536e+00 9.30826798e+00 9.30521134e+00 9.30147546e+00 9.29706032e+00 9.29196593e+00 9.28619228e+00 9.27973939e+00 9.27260724e+00 9.26479584e+00 9.25630518e+00 9.24713528e+00 9.23728612e+00 9.22675771e+00 9.21555005e+00 9.20366313e+00 9.19109697e+00 9.17785155e+00 9.16392688e+00 9.14932295e+00 9.13501964e+00 9.12313273e+00 9.11056656e+00 9.09732114e+00 9.08582937e+00 9.08073498e+00 9.07496134e+00
4.38499190e+00 4.45937002e+00 4.53306889e+00 4.60608851e+00 4.67842887e+00 4.75008999e+00 4.82107185e+00 4.89137446e+00 4.96099781e+00 5.02994192e+00 5.09820677e+00 5.16579237e+00 5.23269872e+00 5.29892581e+00 5.36447365e+00 5.42934224e+00 5.49353158e+00 5.55704167e+00 5.61987250e+00 5.68202408e+00 5.74349641e+00 5.80428949e+00 5.86440332e+00 5.92383789e+00 5.98259321e+00 6.04066928e+00 6.09806609e+00 6.15478366e+00 6.21082197e+00 6.26618103e+00 6.32086083e+00 6.37486139e+00 6.42818269e+00 6.48082474e+00 6.53278754e+00 6.58407108e+00 6.63467538e+00 6.68460042e+00 6.73384621e+00 6.78241274e+00 6.83030003e+00 6.87750806e+00 6.92403684e+00 6.96988637e+00 7.01505664e+00 7.05954767e+00 7.10335944e+00 7.14649195e+00 7.18894522e+00 7.23071923e+00 7.27181400e+00 7.31222951e+00 7.35196576e+00 7.39102277e+00 7.42940052e+00 7.46709902e+00 7.50411827e+00 7.54045826e+00 7.57611901e+00 7.61110050e+00 7.64540274e+00 7.67902572e+00 7.71196946e+00 7.74423394e+00 7.77581917e+00 7.80672515e+00 7.83695188e+00 7.86649935e+00 7.89536757e+00 7.92355654e+00 7.95106625e+00 7.97789672e+00 8.00404793e+00 8.02951989e+00 8.05431260e+00 8.07842605e+00 8.10186026e+00 8.12461521e+00 8.14669091e+00 8.16808735e+00 8.18880455e+00 8.20884249e+00 8.22820118e+00 8.24688061e+00 8.26488080e+00 8.28220173e+00 8.29884341e+00 8.31480584e+00 8.33008901e+00 8.34469294e+00 8.35861761e+00 8.37186303e+00 8.38442920e+00 8.39631611e+00 8.40752377e+00 8.41805218e+00 8.42790134e+00 8.43707125e+00 8.44556190e+00 8.45337330e+00 8.46050545e+00 8.46695834e+00 8.47273199e+00 8.47782638e+00 8.48224152e+00 8.48597741e+00 8.50313340e+00 8.53607713e+00 8.56834161e+00 8.59992684e+00 8.63083282e+00 8.66105955e+00 8.69060702e+00 8.71947524e+00 8.74766421e+00 8.77517393e+00 8.80200439e+00 8.82815560e+00 8.85362756e+00 8.87842027e+00 8.90253373e+00 8.92596793e+00 8.94872288e+00 8.97079858e+00 8.99219502e+00 9.01291222e+00 9.03295016e+00 9.05230885e+00 9.07098829e+00 9.08898847e+00 9.10630940e+00 9.12295108e+00 9.13891351e+00 9.15419669e+00 9.16880061e+00 9.18272528e+00 9.19597070e+00 9.20853687e+00 9.22042378e+00 9.23163145e+00 9.24215986e+00 9.25200901e+00 9.26117892e+00 9.26966957e+00 9.27748097e+00 9.28461312e+00 9.29106602e+00 9.29683966e+00 9.30193405e+00 9.30634919e+00 9.31008508e+00 9.31314172e+00 9.31551910e+00 9.31721723e+00 9.31823611e+00 9.31857573e+00 9.31823611e+00 9.31721723e+00 9.31551910e+00 9.31314172e+00 9.31008508e+00 9.30634919e+00 9.30193405e+00 9.29683966e+00 9.29106602e+00 9.28461312e+00 9.28359017e+00 9.28528830e+00 9.28630718e+00 9.28664681e+00 9.28630718e+00 9.28528830e+00 9.28359017e+00 9.28121279e+00 9.27815616e+00 9.27442027e+00 9.27000513e+00 9.26491074e+00 9.25913709e+00 9.25268420e+00 9.24555205e+00 9.23774065e+00 9.22924999e+00 9.22008009e+00 9.21023093e+00 9.19970252e+00 9.18849486e+00 9.17660794e+00 9.16404178e+00 9.15079636e+00 9.13687169e+00 9.12226776e+00 9.10698459e+00 9.09333777e+00 9.08952828e+00 9.08579239e+00 9.08137725e+00 9.07628286e+00 9.07050922e+00
4.37163554e+00 4.44601366e+00 4.51971253e+00 4.59273215e+00 4.66507251e+00 4.73673363e+00 4.80771549e+00 4.87801810e+00 4.94764145e+00 5.01658556e+00 5.08485041e+00 5.15243601e+00 5.21934236e+00 5.28556945e+00 5.35111729e+00 5.41598589e+00 5.48017522e+00 5.54368531e+00 5.60651614e+00 5.66866773e+00 5.73014006e+00 5.79093313e+00 5.85104696e+00 5.91048153e+00 5.96923685e+00 6.02731292e+00 6.08470973e+00 6.14142730e+00 6.19746561e+00 6.25282467e+00 6.30750447e+00 6.36150503e+00 6.41482633e+00 6.46746838e+00 6.51943118e+00 6.57071473e+00 6.62131902e+00 6.67124406e+00 6.72048985e+00 6.76905638e+00 6.81694367e+00 6.86415170e+00 6.91068048e+00 6.95653001e+00 7.00170028e+00 7.04619131e+00 7.09000308e+00 7.13313560e+00 7.17558886e+00 7.21736288e+00 7.25845764e+00 7.29887315e+00 7.33860940e+00 7.37766641e+00 7.41604416e+00 7.45374266e+00 7.49076191e+00 7.52710191e+00 7.56276265e+00 7.59774414e+00 7.63204638e+00 7.66566937e+00 7.69861310e+00 7.73087758e+00 7.76246281e+00 7.79336879e+00 7.82359552e+00 7.85314299e+00 7.88201121e+00 7.91020018e+00 7.93770990e+00 7.96454036e+00 7.99069157e+00 8.01616353e+00 8.04095624e+00 8.06506969e+00 8.08850390e+00 8.11125885e+00 8.13333455e+00 8.15473099e+00 8.17544819e+00 8.19548613e+00 8.21484482e+00 8.23352425e+00 8.25152444e+00 8.26884537e+00 8.28548705e+00 8.30144948e+00 8.31673266e+00 8.33133658e+00 8.34526125e+00 8.35850667e+00 8.37107284e+00 8.38295975e+00 8.39416741e+00 8.40469582e+00 8.41454498e+00 8.42371489e+00 8.43220554e+00 8.44001694e+00 8.44714909e+00 8.45360199e+00 8.45937563e+00 8.46447002e+00 8.46888516e+00 8.47262105e+00 8.49320175e+00 8.52614548e+00 8.55840996e+00 8.58999519e+00 8.62090117e+00 8.65112790e+00 8.68067537e+00 8.70954359e+00 8.73773256e+00 8.76524228e+00 8.79207274e+00 8.81822395e+00 8.84369591e+00 8.86848862e+00 8.89260207e+00 8.91603628e+00 8.93879123e+00 8.96086693e+00 8.98226337e+00 9.00298057e+00 9.02301851e+00 9.04237720e+00 9.06105663e+00 9.07905682e+00 9.09637775e+00 9.11301943e+00 9.12898186e+00 9.14426504e+00 9.15886896e+00 9.17279363e+00 9.18603905e+00 9.19860522e+00 9.21049213e+00 9.22169979e+00 9.23222820e+00 9.24207736e+00 9.25124727e+00 9.25973792e+00 9.26754932e+00 9.27468147e+00 9.28113437e+00 9.28690801e+00 9.29200240e+00 9.29641754e+00 9.30015343e+00 9.30321006e+00 9.30558745e+00 9.30728558e+00 9.30830446e+00 9.30864408e+00 9.30830446e+00 9.30728558e+00 9.30558745e+00 9.30321006e+00 9.30015343e+00 9.29641754e+00 9.29200240e+00 9.28690801e+00 9.28113437e+00 9.27468147e+00 9.26754932e+00 9.25973792e+00 9.25856705e+00 9.25890668e+00 9.25856705e+00 9.25754817e+00 9.25585004e+00 9.25347266e+00 9.25041603e+00 9.24668014e+00 9.24226500e+00 9.23717061e+00 9.23139696e+00 9.22494407e+00 9.21781192e+00 9.21000052e+00 9.20150986e+00 9.19233996e+00 9.18249080e+00 9.17196239e+00 9.16075473e+00 9.14886781e+00 9.13630165e+00 9.12305623e+00 9.10913156e+00 9.09452763e+00 9.08982524e+00 9.08744785e+00 9.08439122e+00 9.08065533e+00 9.07624019e+00 9.07114580e+00 9.06537216e+00
4.35759424e+00 4.43197236e+00 4.50567123e+00 4.57869085e+00 4.65103121e+00 4.72269233e+00 4.79367419e+00 4.86397680e+00 4.93360015e+00 5.00254426e+00 5.07080911e+00 5.13839471e+00 5.20530106e+00 5.27152815e+00 5.33707599e+00 5.40194459e+00 5.46613392e+00 5.52964401e+00 5.59247484e+00 5.65462643e+00 5.71609875e+00 5.77689183e+00 5.83700566e+00 5.89644023e+00 5.95519555e+00 6.01327162e+00 6.07066843e+00 6.12738600e+00 6.18342431e+00 6.23878337e+00 6.29346317e+00 6.34746373e+00 6.40078503e+00 6.45342708e+00 6.50538988e+00 6.55667342e+00 6.60727772e+00 6.65720276e+00 6.70644855e+00 6.75501508e+00 6.80290237e+00 6.85011040e+00 6.89663918e+00 6.94248871e+00 6.98765898e+00 7.03215001e+00 7.07596178e+00 7.11909429e+00 7.16154756e+00 7.20332157e+00 7.24441634e+00 7.28483185e+00 7.32456810e+00 7.36362511e+00 7.40200286e+00 7.43970136e+00 7.47672061e+00 7.51306060e+00 7.54872135e+00 7.58370284e+00 7.61800508e+00 7.65162807e+00 7.68457180e+00 7.71683628e+00 7.74842151e+00 7.77932749e+00 7.80955422e+00 7.83910169e+00 7.86796991e+00 7.89615888e+00 7.92366860e+00 7.95049906e+00 7.97665027e+00 8.00212223e+00 8.02691494e+00 8.05102839e+00 8.07446260e+00 8.09721755e+00 8.11929325e+00 8.14068969e+00 8.16140689e+00 8.18144483e+00 8.20080352e+00 8.21948295e+00 8.23748314e+00 8.25480407e+00 8.27144575e+00 8.28740818e+00 8.30269136e+00 8.31729528e+00 8.33121995e+00 8.34446537e+00 8.35703154e+00 8.36891845e+00 8.38012611e+00 8.39065452e+00 8.40050368e+00 8.40967359e+00 8.41816424e+00 8.42597564e+00 8.43310779e+00 8.43956069e+00 8.44533433e+00 8.45042872e+00 8.45484386e+00 8.45857975e+00 8.48258515e+00 8.51552889e+00 8.54779337e+00 8.57937860e+00 8.61028458e+00 8.64051130e+00 8.67005878e+00 8.69892700e+00 8.72711597e+00 8.75462568e+00 8.78145615e+00 8.80760736e+00 8.83307932e+00 8.85787203e+00 8.88198548e+00 8.90541968e+00 8.92817463e+00 8.95025033e+00 8.97164678e+00 8.99236397e+00 9.01240191e+00 9.03176060e+00 9.05044004e+00 9.06844023e+00 9.08576116e+00 9.10240284e+00 9.11836527e+00 9.13364844e+00 9.14825237e+00 9.16217704e+00 9.17542246e+00 9.18798862e+00 9.19987554e+00 9.21108320e+00 9.22161161e+00 9.23146077e+00 9.24063067e+00 9.24912133e+00 9.25693273e+00 9.26406488e+00 9.27051777e+00 9.27629142e+00 9.28138581e+00 9.28580095e+00 9.28953684e+00 9.29259347e+00 9.29497085e+00 9.29666898e+00 9.29768786e+00 9.29802749e+00 9.29768786e+00 9.29666898e+00 9.29497085e+00 9.29259347e+00 9.28953684e+00 9.28580095e+00 9.28138581e+00 9.27629142e+00 9.27051777e+00 9.26406488e+00 9.25693273e+00 9.24912133e+00 9.24063067e+00 9.23146077e+00 9.23014198e+00 9.22912310e+00 9.22742497e+00 9.22504759e+00 9.22199095e+00 9.21825507e+00 9.21383993e+00 9.20874554e+00 9.20297189e+00 9.19651899e+00 9.18938685e+00 9.18157544e+00 9.17308479e+00 9.16391489e+00 9.15406573e+00 9.14353732e+00 9.13232966e+00 9.12044274e+00 9.10787657e+00 9.09463116e+00 9.08672024e+00 9.08570137e+00 9.08400323e+00 9.08162585e+00 9.07856922e+00 9.07483333e+00 9.07041819e+00 9.06532380e+00 9.05955015e+00
4.34286800e+00 4.41724612e+00 4.49094499e+00 4.56396461e+00 4.63630497e+00 4.70796608e+00 4.77894795e+00 4.84925055e+00 4.91887391e+00 4.98781802e+00 5.05608287e+00 5.12366847e+00 5.19057481e+00 5.25680191e+00 5.32234975e+00 5.38721834e+00 5.45140768e+00 5.51491777e+00 5.57774860e+00 5.63990018e+00 5.70137251e+00 5.76216559e+00 5.82227941e+00 5.88171399e+00 5.94046931e+00 5.99854538e+00 6.05594219e+00 6.11265976e+00 6.16869807e+00 6.22405713e+00 6.27873693e+00 6.33273749e+00 6.38605879e+00 6.43870084e+00 6.49066364e+00 6.54194718e+00 6.59255148e+00 6.64247652e+00 6.69172231e+00 6.74028884e+00 6.78817613e+00 6.83538416e+00 6.88191294e+00 6.92776247e+00 6.97293274e+00 7.01742376e+00 7.06123553e+00 7.10436805e+00 7.14682132e+00 7.18859533e+00 7.22969009e+00 7.27010560e+00 7.30984186e+00 7.34889887e+00 7.38727662e+00 7.42497512e+00 7.46199437e+00 7.49833436e+00 7.53399511e+00 7.56897660e+00 7.60327884e+00 7.63690182e+00 7.66984556e+00 7.70211004e+00 7.73369527e+00 7.76460125e+00 7.79482797e+00 7.82437545e+00 7.85324367e+00 7.88143264e+00 7.90894235e+00 7.93577282e+00 7.96192403e+00 7.98739599e+00 8.01218870e+00 8.03630215e+00 8.05973635e+00 8.08249131e+00 8.10456700e+00 8.12596345e+00 8.14668064e+00 8.16671859e+00 8.18607727e+00 8.20475671e+00 8.22275690e+00 8.24007783e+00 8.25671951e+00 8.27268194e+00 8.28796511e+00 8.30256904e+00 8.31649371e+00 8.32973913e+00 8.34230529e+00 8.35419221e+00 8.36539987e+00 8.37592828e+00 8.38577744e+00 8.39494734e+00 8.40343800e+00 8.41124940e+00 8.41838155e+00 8.42483444e+00 8.43060809e+00 8.43570248e+00 8.44011762e+00 8.44385351e+00 8.47128362e+00 8.50422735e+00 8.53649184e+00 8.56807707e+00 8.59898304e+00 8.62920977e+00 8.65875724e+00 8.68762546e+00 8.71581443e+00 8.74332415e+00 8.77015461e+00 8.79630582e+00 8.82177778e+00 8.84657049e+00 8.87068395e+00 8.89411815e+00 8.91687310e+00 8.93894880e+00 8.96034524e+00 8.98106244e+00 9.00110038e+00 9.02045907e+00 9.03913851e+00 9.05713869e+00 9.07445962e+00 9.09110130e+00 9.10706373e+00 9.12234691e+00 9.13695083e+00 9.15087550e+00 9.16412092e+00 9.17668709e+00 9.18857400e+00 9.19978167e+00 9.21031008e+00 9.22015923e+00 9.22932914e+00 9.23781979e+00 9.24563119e+00 9.25276334e+00 9.25921624e+00 9.26498988e+00 9.27008427e+00 9.27449941e+00 9.27823530e+00 9.28129194e+00 9.28366932e+00 9.28536745e+00 9.28638633e+00 9.28672595e+00 9.28638633e+00 9.28536745e+00 9.28366932e+00 9.28129194e+00 9.27823530e+00 9.27449941e+00 9.27008427e+00 9.26498988e+00 9.25921624e+00 9.25276334e+00 9.24563119e+00 9.23781979e+00 9.22932914e+00 9.22015923e+00 9.21031008e+00 9.20001309e+00 9.19831496e+00 9.19593758e+00 9.19288094e+00 9.18914505e+00 9.18472991e+00 9.17963552e+00 9.17386188e+00 9.16740898e+00 9.16027683e+00 9.15246543e+00 9.14397478e+00 9.13480487e+00 9.12495572e+00 9.11442731e+00 9.10321964e+00 9.09133273e+00 9.08021330e+00 9.08055293e+00 9.08021330e+00 9.07919442e+00 9.07749629e+00 9.07511891e+00 9.07206227e+00 9.06832638e+00 9.06391125e+00 9.05881685e+00 9.05304321e+00
4.32745681e+00 4.40183493e+00 4.47553380e+00 4.54855342e+00 4.62089379e+00 4.69255490e+00 4.76353676e+00 4.83383937e+00 4.90346273e+00 4.97240683e+00 5.04067168e+00 5.10825728e+00 5.17516363e+00 5.24139073e+00 5.30693857e+00 5.37180716e+00 5.43599650e+00 5.49950658e+00 5.56233742e+00 5.62448900e+00 5.68596133e+00 5.74675441e+00 5.80686823e+00 5.86630280e+00 5.92505812e+00 5.98313419e+00 6.04053101e+00 6.09724857e+00 6.15328688e+00 6.20864594e+00 6.26332575e+00 6.31732630e+00 6.37064761e+00 6.42328966e+00 6.47525245e+00 6.52653600e+00 6.57714029e+00 6.62706533e+00 6.67631112e+00 6.72487766e+00 6.77276494e+00 6.81997297e+00 6.86650175e+00 6.91235128e+00 6.95752156e+00 7.00201258e+00 7.04582435e+00 7.08895687e+00 7.13141014e+00 7.17318415e+00 7.21427891e+00 7.25469442e+00 7.29443068e+00 7.33348768e+00 7.37186543e+00 7.40956394e+00 7.44658318e+00 7.48292318e+00 7.51858392e+00 7.55356541e+00 7.58786765e+00 7.62149064e+00 7.65443437e+00 7.68669886e+00 7.71828409e+00 7.74919006e+00 7.77941679e+00 7.80896426e+00 7.83783248e+00 7.86602145e+00 7.89353117e+00 7.92036163e+00 7.94651285e+00 7.97198481e+00 7.99677751e+00 8.02089097e+00 8.04432517e+00 8.06708012e+00 8.08915582e+00 8.11055227e+00 8.13126946e+00 8.15130740e+00 8.17066609e+00 8.18934553e+00 8.20734571e+00 8.22466665e+00 8.24130833e+00 8.25727075e+00 8.27255393e+00 8.28715785e+00 8.30108252e+00 8.31432794e+00 8.32689411e+00 8.33878103e+00 8.34998869e+00 8.36051710e+00 8.37036626e+00 8.37953616e+00 8.38802681e+00 8.39583821e+00 8.40297036e+00 8.40942326e+00 8.41519690e+00 8.42029130e+00 8.42470644e+00 8.42844232e+00 8.45929714e+00 8.49224088e+00 8.52450536e+00 8.55609059e+00 8.58699657e+00 8.61722329e+00 8.64677077e+00 8.67563899e+00 8.70382796e+00 8.73133767e+00 8.75816814e+00 8.78431935e+00 8.80979131e+00 8.83458402e+00 8.85869747e+00 8.88213167e+00 8.90488662e+00 8.92696232e+00 8.94835877e+00 8.96907596e+00 8.98911390e+00 9.00847259e+00 9.02715203e+00 9.04515222e+00 9.06247315e+00 9.07911483e+00 9.09507726e+00 9.11036043e+00 9.12496436e+00 9.13888903e+00 9.15213445e+00 9.16470061e+00 9.17658753e+00 9.18779519e+00 9.19832360e+00 9.20817276e+00 9.21734266e+00 9.22583332e+00 9.23364472e+00 9.24077687e+00 9.24722976e+00 9.25300341e+00 9.25809780e+00 9.26251294e+00 9.26624883e+00 9.26930546e+00 9.27168284e+00 9.27338097e+00 9.27439985e+00 9.27473948e+00 9.27439985e+00 9.27338097e+00 9.27168284e+00 9.26930546e+00 9.26624883e+00 9.26251294e+00 9.25809780e+00 9.25300341e+00 9.24722976e+00 9.24077687e+00 9.23364472e+00 9.22583332e+00 9.21734266e+00 9.20817276e+00 9.20005488e+00 9.19156422e+00 9.18239432e+00 9.17254516e+00 9.16308599e+00 9.15935010e+00 9.15493496e+00 9.14984057e+00 9.14406692e+00 9.13761403e+00 9.13048188e+00 9.12267048e+00 9.11417982e+00 9.10500992e+00 9.09516076e+00 9.08463235e+00 9.07342469e+00 9.07200254e+00 9.07302141e+00 9.07336104e+00 9.07302141e+00 9.07200254e+00 9.07030440e+00 9.06792702e+00 9.06487039e+00 9.06113450e+00 9.05671936e+00 9.05162497e+00 9.04585132e+00
4.31136069e+00 4.38573881e+00 4.45943768e+00 4.53245730e+00 4.60479766e+00 4.67645878e+00 4.74744064e+00 4.81774325e+00 4.88736660e+00 4.95631071e+00 5.02457556e+00 5.09216116e+00 5.15906751e+00 5.22529460e+00 5.29084244e+00 5.35571103e+00 5.41990037e+00 5.48341046e+00 5.54624129e+00 5.60839287e+00 5.66986520e+00 5.73065828e+00 5.79077211e+00 5.85020668e+00 5.90896200e+00 5.96703807e+00 6.02443488e+00 6.08115245e+00 6.13719076e+00 6.19254982e+00 6.24722962e+00 6.30123018e+00 6.35455148e+00 6.40719353e+00 6.45915633e+00 6.51043987e+00 6.56104417e+00 6.61096921e+00 6.66021500e+00 6.70878153e+00 6.75666882e+00 6.80387685e+00 6.85040563e+00 6.89625516e+00 6.94142543e+00 6.98591646e+00 7.02972823e+00 7.07286074e+00 7.11531401e+00 7.15708802e+00 7.19818279e+00 7.23859830e+00 7.27833455e+00 7.31739156e+00 7.35576931e+00 7.39346781e+00 7.43048706e+00 7.46682705e+00 7.50248780e+00 7.53746929e+00 7.57177153e+00 7.60539452e+00 7.63833825e+00 7.67060273e+00 7.70218796e+00 7.73309394e+00 7.76332067e+00 7.79286814e+00 7.82173636e+00 7.84992533e+00 7.87743504e+00 7.90426551e+00 7.93041672e+00 7.95588868e+00 7.98068139e+00 8.00479484e+00 8.02822905e+00 8.05098400e+00 8.07305970e+00 8.09445614e+00 8.11517334e+00 8.13521128e+00 8.15456997e+00 8.17324940e+00 8.19124959e+00 8.20857052e+00 8.22521220e+00 8.24117463e+00 8.25645780e+00 8.27106173e+00 8.28498640e+00 8.29823182e+00 8.31079799e+00 8.32268490e+00 8.33389256e+00 8.34442097e+00 8.35427013e+00 8.36344004e+00 8.37193069e+00 8.37974209e+00 8.38687424e+00 8.39332713e+00 8.39910078e+00 8.40419517e+00 8.40861031e+00 8.41300274e+00 8.44662572e+00 8.47956946e+00 8.51183394e+00 8.54341917e+00 8.57432515e+00 8.60455188e+00 8.63409935e+00 8.66296757e+00 8.69115654e+00 8.71866625e+00 8.74549672e+00 8.77164793e+00 8.79711989e+00 8.82191260e+00 8.84602605e+00 8.86946026e+00 8.89221521e+00 8.91429091e+00 8.93568735e+00 8.95640455e+00 8.97644249e+00 8.99580118e+00 9.01448061e+00 9.03248080e+00 9.04980173e+00 9.06644341e+00 9.08240584e+00 9.09768901e+00 9.11229294e+00 9.12621761e+00 9.13946303e+00 9.15202920e+00 9.16391611e+00 9.17512377e+00 9.18565218e+00 9.19550134e+00 9.20467125e+00 9.21316190e+00 9.22097330e+00 9.22810545e+00 9.23455834e+00 9.24033199e+00 9.24542638e+00 9.24984152e+00 9.25357741e+00 9.25663404e+00 9.25901143e+00 9.26070956e+00 9.26172844e+00 9.26206806e+00 9.26172844e+00 9.26070956e+00 9.25901143e+00 9.25663404e+00 9.25357741e+00 9.24984152e+00 9.24542638e+00 9.24033199e+00 9.23455834e+00 9.22810545e+00 9.22097330e+00 9.21357450e+00 9.20712160e+00 9.19998945e+00 9.19217805e+00 9.18368740e+00 9.17451749e+00 9.16466833e+00 9.15413992e+00 9.14293226e+00 9.13447036e+00 9.12733821e+00 9.11952681e+00 9.11103616e+00 9.10186626e+00 9.09219058e+00 9.08369993e+00 9.07453002e+00 9.06468086e+00 9.06005019e+00 9.06242758e+00 9.06412571e+00 9.06514459e+00 9.06548421e+00 9.06514459e+00 9.06412571e+00 9.06242758e+00 9.06005019e+00 9.05699356e+00 9.05325767e+00 9.04884253e+00 9.04374814e+00 9.03797450e+00
4.29457962e+00 4.36895774e+00 4.44265661e+00 4.51567623e+00 4.58801660e+00 4.65967771e+00 4.73065957e+00 4.80096218e+00 4.87058554e+00 4.93952964e+00 5.00779449e+00 5.07538009e+00 5.14228644e+00 5.20851353e+00 5.27406138e+00 5.33892997e+00 5.40311931e+00 5.46662939e+00 5.52946023e+00 5.59161181e+00 5.65308414e+00 5.71387721e+00 5.77399104e+00 5.83342561e+00 5.89218093e+00 5.95025700e+00 6.00765382e+00 6.06437138e+00 6.12040969e+00 6.17576875e+00 6.23044856e+00 6.28444911e+00 6.33777041e+00 6.39041246e+00 6.44237526e+00 6.49365881e+00 6.54426310e+00 6.59418814e+00 6.64343393e+00 6.69200047e+00 6.73988775e+00 6.78709578e+00 6.83362456e+00 6.87947409e+00 6.92464437e+00 6.96913539e+00 7.01294716e+00 7.05607968e+00 7.09853294e+00 7.14030696e+00 7.18140172e+00 7.22181723e+00 7.26155349e+00 7.30061049e+00 7.33898824e+00 7.37668674e+00 7.41370599e+00 7.45004599e+00 7.48570673e+00 7.52068822e+00 7.55499046e+00 7.58861345e+00 7.62155718e+00 7.65382167e+00 7.68540690e+00 7.71631287e+00 7.74653960e+00 7.77608707e+00 7.80495529e+00 7.83314426e+00 7.86065398e+00 7.88748444e+00 7.91363565e+00 7.93910761e+00 7.96390032e+00 7.98801378e+00 8.01144798e+00 8.03420293e+00 8.05627863e+00 8.07767507e+00 8.09839227e+00 8.11843021e+00 8.13778890e+00 8.15646834e+00 8.17446852e+00 8.19178945e+00 8.20843113e+00 8.22439356e+00 8.23967674e+00 8.25428066e+00 8.26820533e+00 8.28145075e+00 8.29401692e+00 8.30590383e+00 8.31711150e+00 8.32763991e+00 8.33748906e+00 8.34665897e+00 8.35514962e+00 8.36296102e+00 8.37009317e+00 8.37654607e+00 8.38231971e+00 8.38741410e+00 8.39182924e+00 8.39964638e+00 8.43326937e+00 8.46621310e+00 8.49847758e+00 8.53006281e+00 8.56096879e+00 8.59119552e+00 8.62074299e+00 8.64961121e+00 8.67780018e+00 8.70530990e+00 8.73214036e+00 8.75829157e+00 8.78376353e+00 8.80855624e+00 8.83266969e+00 8.85610390e+00 8.87885885e+00 8.90093455e+00 8.92233099e+00 8.94304819e+00 8.96308613e+00 8.98244482e+00 9.00112425e+00 9.01912444e+00 9.03644537e+00 9.05308705e+00 9.06904948e+00 9.08433266e+00 9.09893658e+00 9.11286125e+00 9.12610667e+00 9.13867284e+00 9.15055975e+00 9.16176741e+00 9.17229582e+00 9.18214498e+00 9.19131489e+00 9.19980554e+00 9.20761694e+00 9.21474909e+00 9.22120199e+00 9.22697563e+00 9.23207002e+00 9.23648516e+00 9.24022105e+00 9.24327768e+00 9.24565507e+00 9.24735320e+00 9.24837208e+00 9.24871170e+00 9.24837208e+00 9.24735320e+00 9.24565507e+00 9.24327768e+00 9.24022105e+00 9.23648516e+00 9.23207002e+00 9.22697563e+00 9.22120199e+00 9.21588076e+00 9.21078637e+00 9.20501273e+00 9.19855983e+00 9.19142768e+00 9.18361628e+00 9.17512563e+00 9.16595572e+00 9.15610657e+00 9.14557816e+00 9.13437049e+00 9.12248358e+00 9.11124209e+00 9.10343069e+00 9.09494004e+00 9.08577013e+00 9.07592097e+00 9.06539256e+00 9.05418490e+00 9.04843179e+00 9.05148843e+00 9.05386581e+00 9.05556394e+00 9.05658282e+00 9.05692244e+00 9.05658282e+00 9.05556394e+00 9.05386581e+00 9.05148843e+00 9.04843179e+00 9.04469590e+00 9.04028076e+00 9.03518637e+00 9.02941273e+00
4.27711361e+00 4.35149174e+00 4.42519061e+00 4.49821022e+00 4.57055059e+00 4.64221170e+00 4.71319356e+00 4.78349617e+00 4.85311953e+00 4.92206363e+00 4.99032848e+00 5.05791408e+00 5.12482043e+00 5.19104753e+00 5.25659537e+00 5.32146396e+00 5.38565330e+00 5.44916338e+00 5.51199422e+00 5.57414580e+00 5.63561813e+00 5.69641121e+00 5.75652503e+00 5.81595960e+00 5.87471492e+00 5.93279099e+00 5.99018781e+00 6.04690537e+00 6.10294368e+00 6.15830274e+00 6.21298255e+00 6.26698310e+00 6.32030441e+00 6.37294646e+00 6.42490925e+00 6.47619280e+00 6.52679709e+00 6.57672213e+00 6.62596792e+00 6.67453446e+00 6.72242174e+00 6.76962978e+00 6.81615856e+00 6.86200808e+00 6.90717836e+00 6.95166938e+00 6.99548115e+00 7.03861367e+00 7.08106694e+00 7.12284095e+00 7.16393571e+00 7.20435122e+00 7.24408748e+00 7.28314448e+00 7.32152224e+00 7.35922074e+00 7.39623998e+00 7.43257998e+00 7.46824072e+00 7.50322221e+00 7.53752445e+00 7.57114744e+00 7.60409118e+00 7.63635566e+00 7.66794089e+00 7.69884687e+00 7.72907359e+00 7.75862106e+00 7.78748928e+00 7.81567825e+00 7.84318797e+00 7.87001843e+00 7.89616965e+00 7.92164161e+00 7.94643431e+00 7.97054777e+00 7.99398197e+00 8.01673692e+00 8.03881262e+00 8.06020907e+00 8.08092626e+00 8.10096420e+00 8.12032289e+00 8.13900233e+00 8.15700251e+00 8.17432345e+00 8.19096513e+00 8.20692755e+00 8.22221073e+00 8.23681465e+00 8.25073933e+00 8.26398474e+00 8.27655091e+00 8.28843783e+00 8.29964549e+00 8.31017390e+00 8.32002306e+00 8.32919296e+00 8.33768361e+00 8.34549502e+00 8.35262716e+00 8.35908006e+00 8.36485370e+00 8.36994810e+00 8.37436324e+00 8.38560508e+00 8.41922807e+00 8.45217180e+00 8.48443628e+00 8.51602151e+00 8.54692749e+00 8.57715422e+00 8.60670169e+00 8.63556991e+00 8.66375888e+00 8.69126860e+00 8.71809906e+00 8.74425027e+00 8.76972223e+00 8.79451494e+00 8.81862839e+00 8.84206260e+00 8.86481755e+00 8.88689325e+00 8.90828969e+00 8.92900689e+00 8.94904483e+00 8.96840352e+00 8.98708295e+00 9.00508314e+00 9.02240407e+00 9.03904575e+00 9.05500818e+00 9.07029136e+00 9.08489528e+00 9.09881995e+00 9.11206537e+00 9.12463154e+00 9.13651845e+00 9.14772611e+00 9.15825452e+00 9.16810368e+00 9.17727359e+00 9.18576424e+00 9.19357564e+00 9.20070779e+00 9.20716069e+00 9.21293433e+00 9.21802872e+00 9.22244386e+00 9.22617975e+00 9.22923638e+00 9.23161377e+00 9.23331190e+00 9.23433078e+00 9.23467040e+00 9.23433078e+00 9.23331190e+00 9.23161377e+00 9.22923638e+00 9.22617975e+00 9.22244386e+00 9.21802872e+00 9.21478508e+00 9.21104919e+00 9.20663405e+00 9.20153966e+00 9.19576602e+00 9.18931312e+00 9.18218097e+00 9.17436957e+00 9.16587892e+00 9.15670901e+00 9.14685986e+00 9.13633145e+00 9.12512378e+00 9.11323687e+00 9.10067070e+00 9.08742528e+00 9.07815897e+00 9.06898906e+00 9.05913991e+00 9.04861150e+00 9.03740383e+00 9.03918508e+00 9.04224172e+00 9.04461910e+00 9.04631723e+00 9.04733611e+00 9.04767573e+00 9.04733611e+00 9.04631723e+00 9.04461910e+00 9.04224172e+00 9.03918508e+00 9.03544919e+00 9.03103405e+00 9.02593966e+00 9.02016602e+00
4.25896266e+00 4.33334079e+00 4.40703966e+00 4.48005927e+00 4.55239964e+00 4.62406075e+00 4.69504261e+00 4.76534522e+00 4.83496858e+00 4.90391268e+00 4.97217753e+00 5.03976313e+00 5.10666948e+00 5.17289658e+00 5.23844442e+00 5.30331301e+00 5.36750235e+00 5.43101244e+00 5.49384327e+00 5.55599485e+00 5.61746718e+00 5.67826026e+00 5.73837408e+00 5.79780866e+00 5.85656398e+00 5.91464004e+00 5.97203686e+00 6.02875442e+00 6.08479273e+00 6.14015179e+00 6.19483160e+00 6.24883215e+00 6.30215346e+00 6.35479551e+00 6.40675830e+00 6.45804185e+00 6.50864614e+00 6.55857118e+00 6.60781697e+00 6.65638351e+00 6.70427079e+00 6.75147883e+00 6.79800761e+00 6.84385713e+00 6.88902741e+00 6.93351843e+00 6.97733020e+00 7.02046272e+00 7.06291599e+00 7.10469000e+00 7.14578476e+00 7.18620027e+00 7.22593653e+00 7.26499353e+00 7.30337129e+00 7.34106979e+00 7.37808903e+00 7.41442903e+00 7.45008977e+00 7.48507127e+00 7.51937350e+00 7.55299649e+00 7.58594023e+00 7.61820471e+00 7.64978994e+00 7.68069592e+00 7.71092264e+00 7.74047011e+00 7.76933834e+00 7.79752730e+00 7.82503702e+00 7.85186748e+00 7.87801870e+00 7.90349066e+00 7.92828336e+00 7.95239682e+00 7.97583102e+00 7.99858597e+00 8.02066167e+00 8.04205812e+00 8.06277531e+00 8.08281325e+00 8.10217194e+00 8.12085138e+00 8.13885156e+00 8.15617250e+00 8.17281418e+00 8.18877661e+00 8.20405978e+00 8.21866370e+00 8.23258838e+00 8.24583379e+00 8.25839996e+00 8.27028688e+00 8.28149454e+00 8.29202295e+00 8.30187211e+00 8.31104201e+00 8.31953266e+00 8.32734407e+00 8.33447621e+00 8.34092911e+00 8.34670276e+00 8.35179715e+00 8.35621229e+00 8.37087884e+00 8.40450182e+00 8.43744556e+00 8.46971004e+00 8.50129527e+00 8.53220125e+00 8.56242797e+00 8.59197545e+00 8.62084367e+00 8.64903264e+00 8.67654235e+00 8.70337282e+00 8.72952403e+00 8.75499599e+00 8.77978870e+00 8.80390215e+00 8.82733635e+00 8.85009131e+00 8.87216700e+00 8.89356345e+00 8.91428064e+00 8.93431859e+00 8.95367727e+00 8.97235671e+00 8.99035690e+00 9.00767783e+00 9.02431951e+00 9.04028194e+00 9.05556511e+00 9.07016904e+00 9.08409371e+00 9.09733913e+00 9.10990529e+00 9.12179221e+00 9.13299987e+00 9.14352828e+00 9.15337744e+00 9.16254734e+00 9.17103800e+00 9.17884940e+00 9.18598155e+00 9.19243444e+00 9.19820809e+00 9.20330248e+00 9.20771762e+00 9.21145351e+00 9.21451014e+00 9.21688752e+00 9.21858566e+00 9.21960453e+00 9.21994416e+00 9.21960453e+00 9.21858566e+00 9.21688752e+00 9.21451014e+00 9.21198558e+00 9.21028745e+00 9.20791006e+00 9.20485343e+00 9.20111754e+00 9.19670240e+00 9.19160801e+00 9.18583437e+00 9.17938147e+00 9.17224932e+00 9.16443792e+00 9.15594727e+00 9.14677736e+00 9.13692820e+00 9.12639979e+00 9.11519213e+00 9.10330522e+00 9.09073905e+00 9.07749363e+00 9.06356896e+00 9.05152306e+00 9.04167390e+00 9.03114549e+00 9.02551754e+00 9.02925343e+00 9.03231006e+00 9.03468745e+00 9.03638558e+00 9.03740446e+00 9.03774408e+00 9.03740446e+00 9.03638558e+00 9.03468745e+00 9.03231006e+00 9.02925343e+00 9.02551754e+00 9.02110240e+00 9.01600801e+00 9.01023437e+00
4.24012677e+00 4.31450489e+00 4.38820376e+00 4.46122338e+00 4.53356375e+00 4.60522486e+00 4.67620672e+00 4.74650933e+00 4.81613269e+00 4.88507679e+00 4.95334164e+00 5.02092724e+00 5.08783359e+00 5.15406069e+00 5.21960853e+00 5.28447712e+00 5.34866646e+00 5.41217654e+00 5.47500738e+00 5.53715896e+00 5.59863129e+00 5.65942437e+00 5.71953819e+00 5.77897276e+00 5.83772808e+00 5.89580415e+00 5.95320097e+00 6.00991853e+00 6.06595684e+00 6.12131590e+00 6.17599571e+00 6.22999626e+00 6.28331757e+00 6.33595962e+00 6.38792241e+00 6.43920596e+00 6.48981025e+00 6.53973529e+00 6.58898108e+00 6.63754762e+00 6.68543490e+00 6.73264294e+00 6.77917171e+00 6.82502124e+00 6.87019152e+00 6.91468254e+00 6.95849431e+00 7.00162683e+00 7.04408010e+00 7.08585411e+00 7.12694887e+00 7.16736438e+00 7.20710064e+00 7.24615764e+00 7.28453540e+00 7.32223390e+00 7.35925314e+00 7.39559314e+00 7.43125388e+00 7.46623537e+00 7.50053761e+00 7.53416060e+00 7.56710433e+00 7.59936882e+00 7.63095405e+00 7.66186002e+00 7.69208675e+00 7.72163422e+00 7.75050244e+00 7.77869141e+00 7.80620113e+00 7.83303159e+00 7.85918281e+00 7.88465477e+00 7.90944747e+00 7.93356093e+00 7.95699513e+00 7.97975008e+00 8.00182578e+00 8.02322223e+00 8.04393942e+00 8.06397736e+00 8.08333605e+00 8.10201549e+00 8.12001567e+00 8.13733661e+00 8.15397829e+00 8.16994071e+00 8.18522389e+00 8.19982781e+00 8.21375248e+00 8.22699790e+00 8.23956407e+00 8.25145099e+00 8.26265865e+00 8.27318706e+00 8.28303622e+00 8.29220612e+00 8.30069677e+00 8.30850817e+00 8.31564032e+00 8.32209322e+00 8.32786686e+00 8.33296126e+00 8.33737640e+00 8.35546765e+00 8.38909064e+00 8.42203437e+00 8.45429886e+00 8.48588409e+00 8.51679006e+00 8.54701679e+00 8.57656426e+00 8.60543248e+00 8.63362145e+00 8.66113117e+00 8.68796163e+00 8.71411285e+00 8.73958481e+00 8.76437751e+00 8.78849097e+00 8.81192517e+00 8.83468012e+00 8.85675582e+00 8.87815227e+00 8.89886946e+00 8.91890740e+00 8.93826609e+00 8.95694553e+00 8.97494571e+00 8.99226665e+00 9.00890833e+00 9.02487075e+00 9.04015393e+00 9.05475785e+00 9.06868252e+00 9.08192794e+00 9.09449411e+00 9.10638103e+00 9.11758869e+00 9.12811710e+00 9.13796626e+00 9.14713616e+00 9.15562681e+00 9.16343821e+00 9.17057036e+00 9.17702326e+00 9.18279690e+00 9.18789130e+00 9.19230644e+00 9.19604232e+00 9.19909896e+00 9.20147634e+00 9.20317447e+00 9.20419335e+00 9.20453298e+00 9.20419335e+00 9.20317447e+00 9.20272749e+00 9.20238786e+00 9.20136898e+00 9.19967085e+00 9.19729347e+00 9.19423684e+00 9.19050095e+00 9.18608581e+00 9.18099142e+00 9.17521777e+00 9.16876488e+00 9.16163273e+00 9.15382133e+00 9.14533067e+00 9.13616077e+00 9.12631161e+00 9.11578320e+00 9.10457554e+00 9.09268862e+00 9.08012246e+00 9.06687704e+00 9.05295237e+00 9.03834844e+00 9.02352295e+00 9.01299454e+00 9.01490095e+00 9.01863684e+00 9.02169347e+00 9.02407085e+00 9.02576898e+00 9.02678786e+00 9.02712749e+00 9.02678786e+00 9.02576898e+00 9.02407085e+00 9.02169347e+00 9.01863684e+00 9.01490095e+00 9.01048581e+00 9.00539142e+00 8.99961777e+00
4.22060594e+00 4.29498406e+00 4.36868293e+00 4.44170255e+00 4.51404292e+00 4.58570403e+00 4.65668589e+00 4.72698850e+00 4.79661186e+00 4.86555596e+00 4.93382081e+00 5.00140641e+00 5.06831276e+00 5.13453985e+00 5.20008770e+00 5.26495629e+00 5.32914563e+00 5.39265571e+00 5.45548655e+00 5.51763813e+00 5.57911046e+00 5.63990353e+00 5.70001736e+00 5.75945193e+00 5.81820725e+00 5.87628332e+00 5.93368014e+00 5.99039770e+00 6.04643601e+00 6.10179507e+00 6.15647488e+00 6.21047543e+00 6.26379673e+00 6.31643878e+00 6.36840158e+00 6.41968513e+00 6.47028942e+00 6.52021446e+00 6.56946025e+00 6.61802679e+00 6.66591407e+00 6.71312210e+00 6.75965088e+00 6.80550041e+00 6.85067069e+00 6.89516171e+00 6.93897348e+00 6.98210600e+00 7.02455926e+00 7.06633328e+00 7.10742804e+00 7.14784355e+00 7.18757981e+00 7.22663681e+00 7.26501456e+00 7.30271306e+00 7.33973231e+00 7.37607231e+00 7.41173305e+00 7.44671454e+00 7.48101678e+00 7.51463977e+00 7.54758350e+00 7.57984798e+00 7.61143321e+00 7.64233919e+00 7.67256592e+00 7.70211339e+00 7.73098161e+00 7.75917058e+00 7.78668030e+00 7.81351076e+00 7.83966197e+00 7.86513393e+00 7.88992664e+00 7.91404010e+00 7.93747430e+00 7.96022925e+00 7.98230495e+00 8.00370139e+00 8.02441859e+00 8.04445653e+00 8.06381522e+00 8.08249466e+00 8.10049484e+00 8.11781577e+00 8.13445745e+00 8.15041988e+00 8.16570306e+00 8.18030698e+00 8.19423165e+00 8.20747707e+00 8.22004324e+00 8.23193015e+00 8.24313782e+00 8.25366623e+00 8.26351538e+00 8.27268529e+00 8.28117594e+00 8.28898734e+00 8.29611949e+00 8.30257239e+00 8.30834603e+00 8.31344042e+00 8.31785556e+00 8.33937153e+00 8.37299452e+00 8.40593825e+00 8.43820273e+00 8.46978796e+00 8.50069394e+00 8.53092067e+00 8.56046814e+00 8.58933636e+00 8.61752533e+00 8.64503504e+00 8.67186551e+00 8.69801672e+00 8.72348868e+00 8.74828139e+00 8.77239484e+00 8.79582905e+00 8.81858400e+00 8.84065970e+00 8.86205614e+00 8.88277334e+00 8.90281128e+00 8.92216997e+00 8.94084940e+00 8.95884959e+00 8.97617052e+00 8.99281220e+00 9.00877463e+00 9.02405780e+00 9.03866173e+00 9.05258640e+00 9.06583182e+00 9.07839799e+00 9.09028490e+00 9.10149256e+00 9.11202097e+00 9.12187013e+00 9.13104004e+00 9.13953069e+00 9.14734209e+00 9.15447424e+00 9.16092713e+00 9.16670078e+00 9.17179517e+00 9.17621031e+00 9.17994620e+00 9.18300283e+00 9.18538022e+00 9.18707835e+00 9.18809723e+00 9.18843685e+00 9.19006745e+00 9.19108633e+00 9.19142595e+00 9.19108633e+00 9.19006745e+00 9.18836932e+00 9.18599194e+00 9.18293530e+00 9.17919941e+00 9.17478427e+00 9.16968988e+00 9.16391624e+00 9.15746334e+00 9.15033119e+00 9.14251979e+00 9.13402914e+00 9.12485923e+00 9.11501008e+00 9.10448167e+00 9.09327400e+00 9.08138709e+00 9.06882092e+00 9.05557550e+00 9.04165083e+00 9.02704691e+00 9.01176373e+00 8.99918427e+00 9.00359941e+00 9.00733530e+00 9.01039194e+00 9.01276932e+00 9.01446745e+00 9.01548633e+00 9.01582595e+00 9.01548633e+00 9.01446745e+00 9.01276932e+00 9.01039194e+00 9.00733530e+00 9.00359941e+00 8.99918427e+00 8.99408988e+00 8.98831624e+00
4.20040017e+00 4.27477829e+00 4.34847716e+00 4.42149678e+00 4.49383714e+00 4.56549826e+00 4.63648012e+00 4.70678272e+00 4.77640608e+00 4.84535019e+00 4.91361504e+00 4.98120064e+00 5.04810698e+00 5.11433408e+00 5.17988192e+00 5.24475051e+00 5.30893985e+00 5.37244994e+00 5.43528077e+00 5.49743235e+00 5.55890468e+00 5.61969776e+00 5.67981159e+00 5.73924616e+00 5.79800148e+00 5.85607755e+00 5.91347436e+00 5.97019193e+00 6.02623024e+00 6.08158930e+00 6.13626910e+00 6.19026966e+00 6.24359096e+00 6.29623301e+00 6.34819581e+00 6.39947935e+00 6.45008365e+00 6.50000869e+00 6.54925448e+00 6.59782101e+00 6.64570830e+00 6.69291633e+00 6.73944511e+00 6.78529464e+00 6.83046491e+00 6.87495593e+00 6.91876770e+00 6.96190022e+00 7.00435349e+00 7.04612750e+00 7.08722226e+00 7.12763777e+00 7.16737403e+00 7.20643104e+00 7.24480879e+00 7.28250729e+00 7.31952654e+00 7.35586653e+00 7.39152728e+00 7.42650877e+00 7.46081101e+00 7.49443399e+00 7.52737773e+00 7.55964221e+00 7.59122744e+00 7.62213342e+00 7.65236014e+00 7.68190762e+00 7.71077584e+00 7.73896481e+00 7.76647452e+00 7.79330499e+00 7.81945620e+00 7.84492816e+00 7.86972087e+00 7.89383432e+00 7.91726852e+00 7.94002348e+00 7.96209917e+00 7.98349562e+00 8.00421281e+00 8.02425076e+00 8.04360944e+00 8.06228888e+00 8.08028907e+00 8.09761000e+00 8.11425168e+00 8.13021411e+00 8.14549728e+00 8.16010121e+00 8.17402588e+00 8.18727130e+00 8.19983746e+00 8.21172438e+00 8.22293204e+00 8.23346045e+00 8.24330961e+00 8.25247951e+00 8.26097017e+00 8.26878157e+00 8.27591372e+00 8.28236661e+00 8.28814026e+00 8.29323465e+00 8.29764979e+00 8.32259046e+00 8.35621345e+00 8.38915718e+00 8.42142167e+00 8.45300690e+00 8.48391287e+00 8.51413960e+00 8.54368707e+00 8.57255529e+00 8.60074426e+00 8.62825398e+00 8.65508444e+00 8.68123565e+00 8.70670761e+00 8.73150032e+00 8.75561378e+00 8.77904798e+00 8.80180293e+00 8.82387863e+00 8.84527507e+00 8.86599227e+00 8.88603021e+00 8.90538890e+00 8.92406834e+00 8.94206852e+00 8.95938945e+00 8.97603113e+00 8.99199356e+00 9.00727674e+00 9.02188066e+00 9.03580533e+00 9.04905075e+00 9.06161692e+00 9.07350383e+00 9.08471150e+00 9.09523991e+00 9.10508906e+00 9.11425897e+00 9.12274962e+00 9.13056102e+00 9.13769317e+00 9.14414607e+00 9.14991971e+00 9.15501410e+00 9.15942924e+00 9.16316513e+00 9.16622177e+00 9.16859915e+00 9.17094883e+00 9.17400546e+00 9.17638284e+00 9.17808097e+00 9.17909985e+00 9.17943948e+00 9.17909985e+00 9.17808097e+00 9.17638284e+00 9.17400546e+00 9.17094883e+00 9.16721294e+00 9.16279780e+00 9.15770341e+00 9.15192976e+00 9.14547687e+00 9.13834472e+00 9.13053332e+00 9.12204266e+00 9.11287276e+00 9.10302360e+00 9.09249519e+00 9.08128753e+00 9.06940061e+00 9.05683445e+00 9.04358903e+00 9.02966436e+00 9.01506043e+00 8.99977726e+00 8.98719780e+00 8.99161294e+00 8.99534883e+00 8.99840546e+00 9.00078284e+00 9.00248097e+00 9.00349985e+00 9.00383948e+00 9.00349985e+00 9.00248097e+00 9.00078284e+00 8.99840546e+00 8.99534883e+00 8.99161294e+00 8.98719780e+00 8.98210341e+00 8.97632976e+00
4.17950945e+00 4.25388757e+00 4.32758644e+00 4.40060606e+00 4.47294643e+00 4.54460754e+00 4.61558940e+00 4.68589201e+00 4.75551537e+00 4.82445947e+00 4.89272432e+00 4.96030992e+00 5.02721627e+00 5.09344336e+00 5.15899121e+00 5.22385980e+00 5.28804914e+00 5.35155922e+00 5.41439006e+00 5.47654164e+00 5.53801397e+00 5.59880704e+00 5.65892087e+00 5.71835544e+00 5.77711076e+00 5.83518683e+00 5.89258365e+00 5.94930121e+00 6.00533952e+00 6.06069858e+00 6.11537839e+00 6.16937894e+00 6.22270024e+00 6.27534229e+00 6.32730509e+00 6.37858864e+00 6.42919293e+00 6.47911797e+00 6.52836376e+00 6.57693030e+00 6.62481758e+00 6.67202561e+00 6.71855439e+00 6.76440392e+00 6.80957420e+00 6.85406522e+00 6.89787699e+00 6.94100951e+00 6.98346277e+00 7.02523679e+00 7.06633155e+00 7.10674706e+00 7.14648332e+00 7.18554032e+00 7.22391807e+00 7.26161657e+00 7.29863582e+00 7.33497582e+00 7.37063656e+00 7.40561805e+00 7.43992029e+00 7.47354328e+00 7.50648701e+00 7.53875150e+00 7.57033673e+00 7.60124270e+00 7.63146943e+00 7.66101690e+00 7.68988512e+00 7.71807409e+00 7.74558381e+00 7.77241427e+00 7.79856548e+00 7.82403744e+00 7.84883015e+00 7.87294361e+00 7.89637781e+00 7.91913276e+00 7.94120846e+00 7.96260490e+00 7.98332210e+00 8.00336004e+00 8.02271873e+00 8.04139817e+00 8.05939835e+00 8.07671928e+00 8.09336096e+00 8.10932339e+00 8.12460657e+00 8.13921049e+00 8.15313516e+00 8.16638058e+00 8.17894675e+00 8.19083366e+00 8.20204133e+00 8.21256974e+00 8.22241889e+00 8.23158880e+00 8.24007945e+00 8.24789085e+00 8.25502300e+00 8.26147590e+00 8.26724954e+00 8.27234393e+00 8.27675907e+00 8.30512445e+00 8.33874744e+00 8.37169118e+00 8.40395566e+00 8.43554089e+00 8.46644687e+00 8.49667359e+00 8.52622106e+00 8.55508928e+00 8.58327825e+00 8.61078797e+00 8.63761843e+00 8.66376965e+00 8.68924161e+00 8.71403431e+00 8.73814777e+00 8.76158197e+00 8.78433692e+00 8.80641262e+00 8.82780907e+00 8.84852626e+00 8.86856420e+00 8.88792289e+00 8.90660233e+00 8.92460251e+00 8.94192345e+00 8.95856513e+00 8.97452755e+00 8.98981073e+00 9.00441465e+00 9.01833933e+00 9.03158474e+00 9.04415091e+00 9.05603783e+00 9.06724549e+00 9.07777390e+00 9.08762306e+00 9.09679296e+00 9.10528361e+00 9.11309502e+00 9.12022716e+00 9.12668006e+00 9.13245370e+00 9.13754810e+00 9.14196324e+00 9.14569912e+00 9.15012638e+00 9.15454152e+00 9.15827741e+00 9.16133404e+00 9.16371143e+00 9.16540956e+00 9.16642844e+00 9.16676806e+00 9.16642844e+00 9.16540956e+00 9.16371143e+00 9.16133404e+00 9.15827741e+00 9.15454152e+00 9.15012638e+00 9.14503199e+00 9.13925834e+00 9.13280545e+00 9.12567330e+00 9.11786190e+00 9.10937125e+00 9.10020134e+00 9.09035218e+00 9.07982377e+00 9.06861611e+00 9.05672920e+00 9.04416303e+00 9.03091761e+00 9.01699294e+00 9.00238901e+00 8.98710584e+00 8.97452638e+00 8.97894152e+00 8.98267741e+00 8.98573404e+00 8.98811143e+00 8.98980956e+00 8.99082844e+00 8.99116806e+00 8.99082844e+00 8.98980956e+00 8.98811143e+00 8.98573404e+00 8.98267741e+00 8.97894152e+00 8.97452638e+00 8.96943199e+00 8.96365834e+00
4.15793379e+00 4.23231192e+00 4.30601079e+00 4.37903040e+00 4.45137077e+00 4.52303188e+00 4.59401374e+00 4.66431635e+00 4.73393971e+00 4.80288381e+00 4.87114867e+00 4.93873426e+00 5.00564061e+00 5.07186771e+00 5.13741555e+00 5.20228414e+00 5.26647348e+00 5.32998357e+00 5.39281440e+00 5.45496598e+00 5.51643831e+00 5.57723139e+00 5.63734521e+00 5.69677979e+00 5.75553511e+00 5.81361117e+00 5.87100799e+00 5.92772555e+00 5.98376386e+00 6.03912292e+00 6.09380273e+00 6.14780329e+00 6.20112459e+00 6.25376664e+00 6.30572944e+00 6.35701298e+00 6.40761727e+00 6.45754232e+00 6.50678810e+00 6.55535464e+00 6.60324192e+00 6.65044996e+00 6.69697874e+00 6.74282826e+00 6.78799854e+00 6.83248956e+00 6.87630133e+00 6.91943385e+00 6.96188712e+00 7.00366113e+00 7.04475589e+00 7.08517140e+00 7.12490766e+00 7.16396466e+00 7.20234242e+00 7.24004092e+00 7.27706017e+00 7.31340016e+00 7.34906090e+00 7.38404240e+00 7.41834463e+00 7.45196762e+00 7.48491136e+00 7.51717584e+00 7.54876107e+00 7.57966705e+00 7.60989377e+00 7.63944125e+00 7.66830947e+00 7.69649843e+00 7.72400815e+00 7.75083862e+00 7.77698983e+00 7.80246179e+00 7.82725449e+00 7.85136795e+00 7.87480215e+00 7.89755710e+00 7.91963280e+00 7.94102925e+00 7.96174644e+00 7.98178438e+00 8.00114307e+00 8.01982251e+00 8.03782269e+00 8.05514363e+00 8.07178531e+00 8.08774774e+00 8.10303091e+00 8.11763484e+00 8.13155951e+00 8.14480493e+00 8.15737109e+00 8.16925801e+00 8.18046567e+00 8.19099408e+00 8.20084324e+00 8.21001314e+00 8.21850380e+00 8.22631520e+00 8.23344735e+00 8.23990024e+00 8.24567389e+00 8.25076828e+00 8.25518342e+00 8.28697350e+00 8.32059649e+00 8.35354023e+00 8.38580471e+00 8.41738994e+00 8.44829592e+00 8.47852264e+00 8.50807011e+00 8.53693834e+00 8.56512730e+00 8.59263702e+00 8.61946748e+00 8.64561870e+00 8.67109066e+00 8.69588336e+00 8.71999682e+00 8.74343102e+00 8.76618597e+00 8.78826167e+00 8.80965812e+00 8.83037531e+00 8.85041325e+00 8.86977194e+00 8.88845138e+00 8.90645156e+00 8.92377250e+00 8.94041418e+00 8.95637661e+00 8.97165978e+00 8.98626370e+00 9.00018838e+00 9.01343379e+00 9.02599996e+00 9.03788688e+00 9.04909454e+00 9.05962295e+00 9.06947211e+00 9.07864201e+00 9.08713266e+00 9.09494407e+00 9.10207621e+00 9.10852911e+00 9.11430276e+00 9.11944909e+00 9.12590199e+00 9.13167563e+00 9.13677002e+00 9.14118516e+00 9.14492105e+00 9.14797768e+00 9.15035507e+00 9.15205320e+00 9.15307208e+00 9.15341170e+00 9.15307208e+00 9.15205320e+00 9.15035507e+00 9.14797768e+00 9.14492105e+00 9.14118516e+00 9.13677002e+00 9.13167563e+00 9.12590199e+00 9.11944909e+00 9.11231694e+00 9.10450554e+00 9.09601489e+00 9.08684498e+00 9.07699582e+00 9.06646741e+00 9.05525975e+00 9.04337284e+00 9.03080667e+00 9.01756125e+00 9.00363658e+00 8.98903266e+00 8.97374948e+00 8.96117002e+00 8.96558516e+00 8.96932105e+00 8.97237768e+00 8.97475507e+00 8.97645320e+00 8.97747208e+00 8.97781170e+00 8.97747208e+00 8.97645320e+00 8.97475507e+00 8.97237768e+00 8.96932105e+00 8.96558516e+00 8.96117002e+00 8.95607563e+00 8.95030199e+00
4.13567320e+00 4.21005132e+00 4.28375019e+00 4.35676981e+00 4.42911017e+00 4.50077128e+00 4.57175315e+00 4.64205575e+00 4.71167911e+00 4.78062321e+00 4.84888807e+00 4.91647367e+00 4.98338001e+00 5.04960711e+00 5.11515495e+00 5.18002354e+00 5.24421288e+00 5.30772297e+00 5.37055380e+00 5.43270538e+00 5.49417771e+00 5.55497079e+00 5.61508461e+00 5.67451919e+00 5.73327451e+00 5.79135058e+00 5.84874739e+00 5.90546496e+00 5.96150327e+00 6.01686233e+00 6.07154213e+00 6.12554269e+00 6.17886399e+00 6.23150604e+00 6.28346884e+00 6.33475238e+00 6.38535668e+00 6.43528172e+00 6.48452751e+00 6.53309404e+00 6.58098133e+00 6.62818936e+00 6.67471814e+00 6.72056767e+00 6.76573794e+00 6.81022896e+00 6.85404073e+00 6.89717325e+00 6.93962652e+00 6.98140053e+00 7.02249529e+00 7.06291080e+00 7.10264706e+00 7.14170407e+00 7.18008182e+00 7.21778032e+00 7.25479957e+00 7.29113956e+00 7.32680031e+00 7.36178180e+00 7.39608404e+00 7.42970702e+00 7.46265076e+00 7.49491524e+00 7.52650047e+00 7.55740645e+00 7.58763317e+00 7.61718065e+00 7.64604887e+00 7.67423784e+00 7.70174755e+00 7.72857802e+00 7.75472923e+00 7.78020119e+00 7.80499390e+00 7.82910735e+00 7.85254155e+00 7.87529650e+00 7.89737220e+00 7.91876865e+00 7.93948584e+00 7.95952378e+00 7.97888247e+00 7.99756191e+00 8.01556210e+00 8.03288303e+00 8.04952471e+00 8.06548714e+00 8.08077031e+00 8.09537424e+00 8.10929891e+00 8.12254433e+00 8.13511049e+00 8.14699741e+00 8.15820507e+00 8.16873348e+00 8.17858264e+00 8.18775254e+00 8.19624320e+00 8.20405460e+00 8.21118675e+00 8.21763964e+00 8.22341329e+00 8.22850768e+00 8.23383537e+00 8.26813761e+00 8.30176060e+00 8.33470433e+00 8.36696882e+00 8.39855405e+00 8.42946002e+00 8.45968675e+00 8.48923422e+00 8.51810244e+00 8.54629141e+00 8.57380113e+00 8.60063159e+00 8.62678281e+00 8.65225477e+00 8.67704747e+00 8.70116093e+00 8.72459513e+00 8.74735008e+00 8.76942578e+00 8.79082223e+00 8.81153942e+00 8.83157736e+00 8.85093605e+00 8.86961549e+00 8.88761567e+00 8.90493661e+00 8.92157829e+00 8.93754071e+00 8.95282389e+00 8.96742781e+00 8.98135248e+00 8.99459790e+00 9.00716407e+00 9.01905099e+00 9.03025865e+00 9.04078706e+00 9.05063622e+00 9.05980612e+00 9.06829677e+00 9.07610817e+00 9.08324032e+00 9.09046424e+00 9.09827564e+00 9.10540779e+00 9.11186069e+00 9.11763433e+00 9.12272872e+00 9.12714386e+00 9.13087975e+00 9.13393638e+00 9.13631377e+00 9.13801190e+00 9.13903078e+00 9.13937040e+00 9.13903078e+00 9.13801190e+00 9.13631377e+00 9.13393638e+00 9.13087975e+00 9.12714386e+00 9.12272872e+00 9.11763433e+00 9.11186069e+00 9.10540779e+00 9.09827564e+00 9.09046424e+00 9.08197359e+00 9.07280368e+00 9.06295452e+00 9.05242611e+00 9.04121845e+00 9.02933154e+00 9.01676537e+00 9.00351995e+00 8.98959528e+00 8.97499136e+00 8.95970818e+00 8.94712872e+00 8.95154386e+00 8.95527975e+00 8.95833638e+00 8.96071377e+00 8.96241190e+00 8.96343078e+00 8.96377040e+00 8.96343078e+00 8.96241190e+00 8.96071377e+00 8.95833638e+00 8.95527975e+00 8.95154386e+00 8.94712872e+00 8.94203433e+00 8.93626069e+00
4.11272766e+00 4.18710578e+00 4.26080465e+00 4.33382427e+00 4.40616463e+00 4.47782574e+00 4.54880761e+00 4.61911021e+00 4.68873357e+00 4.75767768e+00 4.82594253e+00 4.89352813e+00 4.96043447e+00 5.02666157e+00 5.09220941e+00 5.15707800e+00 5.22126734e+00 5.28477743e+00 5.34760826e+00 5.40975984e+00 5.47123217e+00 5.53202525e+00 5.59213907e+00 5.65157365e+00 5.71032897e+00 5.76840504e+00 5.82580185e+00 5.88251942e+00 5.93855773e+00 5.99391679e+00 6.04859659e+00 6.10259715e+00 6.15591845e+00 6.20856050e+00 6.26052330e+00 6.31180684e+00 6.36241114e+00 6.41233618e+00 6.46158197e+00 6.51014850e+00 6.55803579e+00 6.60524382e+00 6.65177260e+00 6.69762213e+00 6.74279240e+00 6.78728342e+00 6.83109519e+00 6.87422771e+00 6.91668098e+00 6.95845499e+00 6.99954975e+00 7.03996526e+00 7.07970152e+00 7.11875853e+00 7.15713628e+00 7.19483478e+00 7.23185403e+00 7.26819402e+00 7.30385477e+00 7.33883626e+00 7.37313850e+00 7.40676148e+00 7.43970522e+00 7.47196970e+00 7.50355493e+00 7.53446091e+00 7.56468763e+00 7.59423511e+00 7.62310333e+00 7.65129230e+00 7.67880201e+00 7.70563248e+00 7.73178369e+00 7.75725565e+00 7.78204836e+00 7.80616181e+00 7.82959601e+00 7.85235097e+00 7.87442666e+00 7.89582311e+00 7.91654030e+00 7.93657825e+00 7.95593693e+00 7.97461637e+00 7.99261656e+00 8.00993749e+00 8.02657917e+00 8.04254160e+00 8.05782477e+00 8.07242870e+00 8.08635337e+00 8.09959879e+00 8.11216495e+00 8.12405187e+00 8.13525953e+00 8.14578794e+00 8.15563710e+00 8.16480700e+00 8.17329766e+00 8.18110906e+00 8.18824121e+00 8.19469410e+00 8.20046775e+00 8.20556214e+00 8.21431454e+00 8.24861678e+00 8.28223977e+00 8.31518350e+00 8.34744798e+00 8.37903321e+00 8.40993919e+00 8.44016592e+00 8.46971339e+00 8.49858161e+00 8.52677058e+00 8.55428030e+00 8.58111076e+00 8.60726197e+00 8.63273393e+00 8.65752664e+00 8.68164010e+00 8.70507430e+00 8.72782925e+00 8.74990495e+00 8.77130139e+00 8.79201859e+00 8.81205653e+00 8.83141522e+00 8.85009466e+00 8.86809484e+00 8.88541577e+00 8.90205745e+00 8.91801988e+00 8.93330306e+00 8.94790698e+00 8.96183165e+00 8.97507707e+00 8.98764324e+00 8.99953015e+00 9.01073782e+00 9.02126623e+00 9.03111538e+00 9.04028529e+00 9.04877594e+00 9.05807744e+00 9.06724734e+00 9.07573800e+00 9.08354940e+00 9.09068155e+00 9.09713444e+00 9.10290809e+00 9.10800248e+00 9.11241762e+00 9.11615351e+00 9.11921014e+00 9.12158752e+00 9.12328566e+00 9.12430453e+00 9.12464416e+00 9.12430453e+00 9.12328566e+00 9.12158752e+00 9.11921014e+00 9.11615351e+00 9.11241762e+00 9.10800248e+00 9.10290809e+00 9.09713444e+00 9.09068155e+00 9.08354940e+00 9.07573800e+00 9.06724734e+00 9.05807744e+00 9.04822828e+00 9.03769987e+00 9.02649221e+00 9.01460529e+00 9.00203913e+00 8.98879371e+00 8.97486904e+00 8.96026511e+00 8.94498194e+00 8.93240248e+00 8.93681762e+00 8.94055351e+00 8.94361014e+00 8.94598752e+00 8.94768566e+00 8.94870453e+00 8.94904416e+00 8.94870453e+00 8.94768566e+00 8.94598752e+00 8.94361014e+00 8.94055351e+00 8.93681762e+00 8.93240248e+00 8.92730809e+00 8.92153444e+00
4.08909717e+00 4.16347530e+00 4.23717417e+00 4.31019378e+00 4.38253415e+00 4.45419526e+00 4.52517712e+00 4.59547973e+00 4.66510309e+00 4.73404719e+00 4.80231205e+00 4.86989765e+00 4.93680399e+00 5.00303109e+00 5.06857893e+00 5.13344752e+00 5.19763686e+00 5.26114695e+00 5.32397778e+00 5.38612936e+00 5.44760169e+00 5.50839477e+00 5.56850859e+00 5.62794317e+00 5.68669849e+00 5.74477455e+00 5.80217137e+00 5.85888893e+00 5.91492725e+00 5.97028630e+00 6.02496611e+00 6.07896667e+00 6.13228797e+00 6.18493002e+00 6.23689282e+00 6.28817636e+00 6.33878065e+00 6.38870570e+00 6.43795148e+00 6.48651802e+00 6.53440531e+00 6.58161334e+00 6.62814212e+00 6.67399164e+00 6.71916192e+00 6.76365294e+00 6.80746471e+00 6.85059723e+00 6.89305050e+00 6.93482451e+00 6.97591927e+00 7.01633478e+00 7.05607104e+00 7.09512804e+00 7.13350580e+00 7.17120430e+00 7.20822355e+00 7.24456354e+00 7.28022428e+00 7.31520578e+00 7.34950802e+00 7.38313100e+00 7.41607474e+00 7.44833922e+00 7.47992445e+00 7.51083043e+00 7.54105715e+00 7.57060463e+00 7.59947285e+00 7.62766182e+00 7.65517153e+00 7.68200200e+00 7.70815321e+00 7.73362517e+00 7.75841787e+00 7.78253133e+00 7.80596553e+00 7.82872048e+00 7.85079618e+00 7.87219263e+00 7.89290982e+00 7.91294776e+00 7.93230645e+00 7.95098589e+00 7.96898608e+00 7.98630701e+00 8.00294869e+00 8.01891112e+00 8.03419429e+00 8.04879822e+00 8.06272289e+00 8.07596831e+00 8.08853447e+00 8.10042139e+00 8.11162905e+00 8.12215746e+00 8.13200662e+00 8.14117652e+00 8.14966718e+00 8.15747858e+00 8.16461073e+00 8.17106362e+00 8.17683727e+00 8.18193166e+00 8.19410877e+00 8.22841101e+00 8.26203399e+00 8.29497773e+00 8.32724221e+00 8.35882744e+00 8.38973342e+00 8.41996014e+00 8.44950762e+00 8.47837584e+00 8.50656481e+00 8.53407452e+00 8.56090499e+00 8.58705620e+00 8.61252816e+00 8.63732087e+00 8.66143432e+00 8.68486852e+00 8.70762348e+00 8.72969917e+00 8.75109562e+00 8.77181281e+00 8.79185076e+00 8.81120944e+00 8.82988888e+00 8.84788907e+00 8.86521000e+00 8.88185168e+00 8.89781411e+00 8.91309728e+00 8.92770121e+00 8.94162588e+00 8.95487130e+00 8.96743746e+00 8.97932438e+00 8.99053204e+00 9.00106045e+00 9.01108103e+00 9.02228869e+00 9.03281710e+00 9.04266626e+00 9.05183616e+00 9.06032681e+00 9.06813821e+00 9.07527036e+00 9.08172326e+00 9.08749690e+00 9.09259130e+00 9.09700644e+00 9.10074232e+00 9.10379896e+00 9.10617634e+00 9.10787447e+00 9.10889335e+00 9.10923298e+00 9.10889335e+00 9.10787447e+00 9.10617634e+00 9.10379896e+00 9.10074232e+00 9.09700644e+00 9.09259130e+00 9.08749690e+00 9.08172326e+00 9.07527036e+00 9.06813821e+00 9.06032681e+00 9.05183616e+00 9.04266626e+00 9.03281710e+00 9.02228869e+00 9.01108103e+00 8.99919411e+00 8.98662794e+00 8.97338252e+00 8.95945785e+00 8.94485393e+00 8.92957075e+00 8.91699130e+00 8.92140644e+00 8.92514232e+00 8.92819896e+00 8.93057634e+00 8.93227447e+00 8.93329335e+00 8.93363298e+00 8.93329335e+00 8.93227447e+00 8.93057634e+00 8.92819896e+00 8.92514232e+00 8.92140644e+00 8.91699130e+00 8.91189690e+00 8.90612326e+00
4.06478175e+00 4.13915987e+00 4.21285874e+00 4.28587836e+00 4.35821873e+00 4.42987984e+00 4.50086170e+00 4.57116431e+00 4.64078767e+00 4.70973177e+00 4.77799662e+00 4.84558222e+00 4.91248857e+00 4.97871567e+00 5.04426351e+00 5.10913210e+00 5.17332144e+00 5.23683152e+00 5.29966236e+00 5.36181394e+00 5.42328627e+00 5.48407935e+00 5.54419317e+00 5.60362774e+00 5.66238306e+00 5.72045913e+00 5.77785595e+00 5.83457351e+00 5.89061182e+00 5.94597088e+00 6.00065069e+00 6.05465124e+00 6.10797255e+00 6.16061460e+00 6.21257739e+00 6.26386094e+00 6.31446523e+00 6.36439027e+00 6.41363606e+00 6.46220260e+00 6.51008988e+00 6.55729791e+00 6.60382669e+00 6.64967622e+00 6.69484650e+00 6.73933752e+00 6.78314929e+00 6.82628181e+00 6.86873507e+00 6.91050909e+00 6.95160385e+00 6.99201936e+00 7.03175562e+00 7.07081262e+00 7.10919037e+00 7.14688887e+00 7.18390812e+00 7.22024812e+00 7.25590886e+00 7.29089035e+00 7.32519259e+00 7.35881558e+00 7.39175931e+00 7.42402380e+00 7.45560903e+00 7.48651500e+00 7.51674173e+00 7.54628920e+00 7.57515742e+00 7.60334639e+00 7.63085611e+00 7.65768657e+00 7.68383778e+00 7.70930974e+00 7.73410245e+00 7.75821591e+00 7.78165011e+00 7.80440506e+00 7.82648076e+00 7.84787721e+00 7.86859440e+00 7.88863234e+00 7.90799103e+00 7.92667047e+00 7.94467065e+00 7.96199158e+00 7.97863327e+00 7.99459569e+00 8.00987887e+00 8.02448279e+00 8.03840746e+00 8.05165288e+00 8.06421905e+00 8.07610596e+00 8.08731363e+00 8.09784204e+00 8.10769119e+00 8.11686110e+00 8.12535175e+00 8.13316315e+00 8.14029530e+00 8.14674820e+00 8.15252184e+00 8.15761624e+00 8.17321805e+00 8.20752029e+00 8.24114328e+00 8.27408701e+00 8.30635150e+00 8.33793673e+00 8.36884270e+00 8.39906943e+00 8.42861690e+00 8.45748512e+00 8.48567409e+00 8.51318381e+00 8.54001427e+00 8.56616548e+00 8.59163744e+00 8.61643015e+00 8.64054361e+00 8.66397781e+00 8.68673276e+00 8.70880846e+00 8.73020490e+00 8.75092210e+00 8.77096004e+00 8.79031873e+00 8.80899817e+00 8.82699835e+00 8.84431928e+00 8.86096096e+00 8.87692339e+00 8.89220657e+00 8.90681049e+00 8.92073516e+00 8.93398058e+00 8.94654675e+00 8.95843366e+00 8.97053182e+00 8.98309799e+00 8.99498490e+00 9.00619256e+00 9.01672097e+00 9.02657013e+00 9.03574004e+00 9.04423069e+00 9.05204209e+00 9.05917424e+00 9.06562713e+00 9.07140078e+00 9.07649517e+00 9.08091031e+00 9.08464620e+00 9.08770283e+00 9.09008022e+00 9.09177835e+00 9.09279723e+00 9.09313685e+00 9.09279723e+00 9.09177835e+00 9.09008022e+00 9.08770283e+00 9.08464620e+00 9.08091031e+00 9.07649517e+00 9.07140078e+00 9.06562713e+00 9.05917424e+00 9.05204209e+00 9.04423069e+00 9.03574004e+00 9.02657013e+00 9.01672097e+00 9.00619256e+00 8.99498490e+00 8.98309799e+00 8.97053182e+00 8.95728640e+00 8.94336173e+00 8.92875780e+00 8.91347463e+00 8.90089517e+00 8.90531031e+00 8.90904620e+00 8.91210283e+00 8.91448022e+00 8.91617835e+00 8.91719723e+00 8.91753685e+00 8.91719723e+00 8.91617835e+00 8.91448022e+00 8.91210283e+00 8.90904620e+00 8.90531031e+00 8.90089517e+00 8.89580078e+00 8.89002713e+00
4.03978139e+00 4.11415951e+00 4.18785838e+00 4.26087800e+00 4.33321836e+00 4.40487948e+00 4.47586134e+00 4.54616395e+00 4.61578730e+00 4.68473141e+00 4.75299626e+00 4.82058186e+00 4.88748821e+00 4.95371530e+00 5.01926314e+00 5.08413173e+00 5.14832107e+00 5.21183116e+00 5.27466199e+00 5.33681357e+00 5.39828590e+00 5.45907898e+00 5.51919281e+00 5.57862738e+00 5.63738270e+00 5.69545877e+00 5.75285558e+00 5.80957315e+00 5.86561146e+00 5.92097052e+00 5.97565032e+00 6.02965088e+00 6.08297218e+00 6.13561423e+00 6.18757703e+00 6.23886057e+00 6.28946487e+00 6.33938991e+00 6.38863570e+00 6.43720223e+00 6.48508952e+00 6.53229755e+00 6.57882633e+00 6.62467586e+00 6.66984613e+00 6.71433716e+00 6.75814893e+00 6.80128144e+00 6.84373471e+00 6.88550872e+00 6.92660349e+00 6.96701900e+00 7.00675525e+00 7.04581226e+00 7.08419001e+00 7.12188851e+00 7.15890776e+00 7.19524775e+00 7.23090850e+00 7.26588999e+00 7.30019223e+00 7.33381521e+00 7.36675895e+00 7.39902343e+00 7.43060866e+00 7.46151464e+00 7.49174137e+00 7.52128884e+00 7.55015706e+00 7.57834603e+00 7.60585574e+00 7.63268621e+00 7.65883742e+00 7.68430938e+00 7.70910209e+00 7.73321554e+00 7.75664975e+00 7.77940470e+00 7.80148039e+00 7.82287684e+00 7.84359403e+00 7.86363198e+00 7.88299067e+00 7.90167010e+00 7.91967029e+00 7.93699122e+00 7.95363290e+00 7.96959533e+00 7.98487850e+00 7.99948243e+00 8.01340710e+00 8.02665252e+00 8.03921869e+00 8.05110560e+00 8.06231326e+00 8.07284167e+00 8.08269083e+00 8.09186074e+00 8.10035139e+00 8.10816279e+00 8.11529494e+00 8.12174783e+00 8.12752148e+00 8.13261587e+00 8.15164240e+00 8.18594463e+00 8.21956762e+00 8.25251136e+00 8.28477584e+00 8.31636107e+00 8.34726705e+00 8.37749377e+00 8.40704125e+00 8.43590947e+00 8.46409843e+00 8.49160815e+00 8.51843862e+00 8.54458983e+00 8.57006179e+00 8.59485449e+00 8.61896795e+00 8.64240215e+00 8.66515710e+00 8.68723280e+00 8.70862925e+00 8.72934644e+00 8.74938438e+00 8.76874307e+00 8.78742251e+00 8.80542269e+00 8.82274363e+00 8.83938531e+00 8.85534774e+00 8.87063091e+00 8.88523484e+00 8.89915951e+00 8.91240493e+00 8.92658066e+00 8.94050533e+00 8.95375075e+00 8.96631692e+00 8.97820383e+00 8.98941150e+00 8.99993991e+00 9.00978906e+00 9.01895897e+00 9.02744962e+00 9.03526102e+00 9.04239317e+00 9.04884607e+00 9.05461971e+00 9.05971410e+00 9.06412924e+00 9.06786513e+00 9.07092177e+00 9.07329915e+00 9.07499728e+00 9.07601616e+00 9.07635578e+00 9.07601616e+00 9.07499728e+00 9.07329915e+00 9.07092177e+00 9.06786513e+00 9.06412924e+00 9.05971410e+00 9.05461971e+00 9.04884607e+00 9.04239317e+00 9.03526102e+00 9.02744962e+00 9.01895897e+00 9.00978906e+00 8.99993991e+00 8.98941150e+00 8.97820383e+00 8.96631692e+00 8.95375075e+00 8.94050533e+00 8.92658066e+00 8.91197674e+00 8.89669356e+00 8.88411410e+00 8.88852924e+00 8.89226513e+00 8.89532177e+00 8.89769915e+00 8.89939728e+00 8.90041616e+00 8.90075578e+00 8.90041616e+00 8.89939728e+00 8.89769915e+00 8.89532177e+00 8.89226513e+00 8.88852924e+00 8.88411410e+00 8.87901971e+00 8.87324607e+00
4.01409608e+00 4.08847420e+00 4.16217307e+00 4.23519269e+00 4.30753306e+00 4.37919417e+00 4.45017603e+00 4.52047864e+00 4.59010200e+00 4.65904610e+00 4.72731095e+00 4.79489655e+00 4.86180290e+00 4.92803000e+00 4.99357784e+00 5.05844643e+00 5.12263577e+00 5.18614585e+00 5.24897669e+00 5.31112827e+00 5.37260060e+00 5.43339368e+00 5.49350750e+00 5.55294207e+00 5.61169739e+00 5.66977346e+00 5.72717028e+00 5.78388784e+00 5.83992615e+00 5.89528521e+00 5.94996502e+00 6.00396557e+00 6.05728687e+00 6.10992893e+00 6.16189172e+00 6.21317527e+00 6.26377956e+00 6.31370460e+00 6.36295039e+00 6.41151693e+00 6.45940421e+00 6.50661224e+00 6.55314102e+00 6.59899055e+00 6.64416083e+00 6.68865185e+00 6.73246362e+00 6.77559614e+00 6.81804940e+00 6.85982342e+00 6.90091818e+00 6.94133369e+00 6.98106995e+00 7.02012695e+00 7.05850470e+00 7.09620320e+00 7.13322245e+00 7.16956245e+00 7.20522319e+00 7.24020468e+00 7.27450692e+00 7.30812991e+00 7.34107364e+00 7.37333813e+00 7.40492336e+00 7.43582933e+00 7.46605606e+00 7.49560353e+00 7.52447175e+00 7.55266072e+00 7.58017044e+00 7.60700090e+00 7.63315211e+00 7.65862407e+00 7.68341678e+00 7.70753024e+00 7.73096444e+00 7.75371939e+00 7.77579509e+00 7.79719154e+00 7.81790873e+00 7.83794667e+00 7.85730536e+00 7.87598480e+00 7.89398498e+00 7.91130591e+00 7.92794760e+00 7.94391002e+00 7.95919320e+00 7.97379712e+00 7.98772179e+00 8.00096721e+00 8.01353338e+00 8.02542029e+00 8.03662796e+00 8.04715637e+00 8.05700552e+00 8.06617543e+00 8.07466608e+00 8.08247748e+00 8.08960963e+00 8.09606253e+00 8.10183617e+00 8.10693057e+00 8.12938180e+00 8.16368404e+00 8.19730702e+00 8.23025076e+00 8.26251524e+00 8.29410047e+00 8.32500645e+00 8.35523317e+00 8.38478065e+00 8.41364887e+00 8.44183784e+00 8.46934755e+00 8.49617802e+00 8.52232923e+00 8.54780119e+00 8.57259390e+00 8.59670735e+00 8.62014155e+00 8.64289650e+00 8.66497220e+00 8.68636865e+00 8.70708584e+00 8.72712378e+00 8.74648247e+00 8.76516191e+00 8.78316210e+00 8.80048303e+00 8.81712471e+00 8.83308714e+00 8.84837031e+00 8.86326513e+00 8.87922755e+00 8.89451073e+00 8.90911465e+00 8.92303933e+00 8.93628474e+00 8.94885091e+00 8.96073783e+00 8.97194549e+00 8.98247390e+00 8.99232306e+00 9.00149296e+00 9.00998361e+00 9.01779502e+00 9.02492716e+00 9.03138006e+00 9.03715370e+00 9.04224810e+00 9.04666324e+00 9.05039912e+00 9.05345576e+00 9.05583314e+00 9.05753127e+00 9.05855015e+00 9.05888978e+00 9.05855015e+00 9.05753127e+00 9.05583314e+00 9.05345576e+00 9.05039912e+00 9.04666324e+00 9.04224810e+00 9.03715370e+00 9.03138006e+00 9.02492716e+00 9.01779502e+00 9.00998361e+00 9.00149296e+00 8.99232306e+00 8.98247390e+00 8.97194549e+00 8.96073783e+00 8.94885091e+00 8.93628474e+00 8.92303933e+00 8.90911465e+00 8.89451073e+00 8.87922755e+00 8.86664810e+00 8.87106324e+00 8.87479912e+00 8.87785576e+00 8.88023314e+00 8.88193127e+00 8.88295015e+00 8.88328978e+00 8.88295015e+00 8.88193127e+00 8.88023314e+00 8.87785576e+00 8.87479912e+00 8.87106324e+00 8.86664810e+00 8.86155370e+00 8.85578006e+00
3.98772583e+00 4.06210396e+00 4.13580283e+00 4.20882244e+00 4.28116281e+00 4.35282392e+00 4.42380578e+00 4.49410839e+00 4.56373175e+00 4.63267585e+00 4.70094071e+00 4.76852631e+00 4.83543265e+00 4.90165975e+00 4.96720759e+00 5.03207618e+00 5.09626552e+00 5.15977561e+00 5.22260644e+00 5.28475802e+00 5.34623035e+00 5.40702343e+00 5.46713725e+00 5.52657183e+00 5.58532715e+00 5.64340321e+00 5.70080003e+00 5.75751759e+00 5.81355590e+00 5.86891496e+00 5.92359477e+00 5.97759533e+00 6.03091663e+00 6.08355868e+00 6.13552148e+00 6.18680502e+00 6.23740931e+00 6.28733436e+00 6.33658014e+00 6.38514668e+00 6.43303396e+00 6.48024200e+00 6.52677078e+00 6.57262030e+00 6.61779058e+00 6.66228160e+00 6.70609337e+00 6.74922589e+00 6.79167916e+00 6.83345317e+00 6.87454793e+00 6.91496344e+00 6.95469970e+00 6.99375670e+00 7.03213446e+00 7.06983296e+00 7.10685221e+00 7.14319220e+00 7.17885294e+00 7.21383444e+00 7.24813668e+00 7.28175966e+00 7.31470340e+00 7.34696788e+00 7.37855311e+00 7.40945909e+00 7.43968581e+00 7.46923329e+00 7.49810151e+00 7.52629047e+00 7.55380019e+00 7.58063066e+00 7.60678187e+00 7.63225383e+00 7.65704653e+00 7.68115999e+00 7.70459419e+00 7.72734914e+00 7.74942484e+00 7.77082129e+00 7.79153848e+00 7.81157642e+00 7.83093511e+00 7.84961455e+00 7.86761473e+00 7.88493567e+00 7.90157735e+00 7.91753978e+00 7.93282295e+00 7.94742688e+00 7.96135155e+00 7.97459697e+00 7.98716313e+00 7.99905005e+00 8.01025771e+00 8.02078612e+00 8.03063528e+00 8.03980518e+00 8.04829584e+00 8.05610724e+00 8.06323939e+00 8.06969228e+00 8.07546593e+00 8.08056032e+00 8.10643626e+00 8.14073850e+00 8.17436148e+00 8.20730522e+00 8.23956970e+00 8.27115493e+00 8.30206091e+00 8.33228763e+00 8.36183511e+00 8.39070333e+00 8.41889230e+00 8.44640201e+00 8.47323248e+00 8.49938369e+00 8.52485565e+00 8.54964836e+00 8.57376181e+00 8.59719601e+00 8.61995097e+00 8.64202666e+00 8.66342311e+00 8.68414030e+00 8.70417825e+00 8.72353693e+00 8.74221637e+00 8.76021656e+00 8.77753749e+00 8.79417917e+00 8.81115156e+00 8.82847250e+00 8.84511418e+00 8.86107661e+00 8.87635978e+00 8.89096370e+00 8.90488838e+00 8.91813379e+00 8.93069996e+00 8.94258688e+00 8.95379454e+00 8.96432295e+00 8.97417211e+00 8.98334201e+00 8.99183266e+00 8.99964407e+00 9.00677621e+00 9.01322911e+00 9.01900276e+00 9.02409715e+00 9.02851229e+00 9.03224817e+00 9.03530481e+00 9.03768219e+00 9.03938032e+00 9.04039920e+00 9.04073883e+00 9.04039920e+00 9.03938032e+00 9.03768219e+00 9.03530481e+00 9.03224817e+00 9.02851229e+00 9.02409715e+00 9.01900276e+00 9.01322911e+00 9.00677621e+00 8.99964407e+00 8.99183266e+00 8.98334201e+00 8.97417211e+00 8.96432295e+00 8.95379454e+00 8.94258688e+00 8.93069996e+00 8.91813379e+00 8.90488838e+00 8.89096370e+00 8.87635978e+00 8.86107661e+00 8.84849715e+00 8.85291229e+00 8.85664817e+00 8.85970481e+00 8.86208219e+00 8.86378032e+00 8.86479920e+00 8.86513883e+00 8.86479920e+00 8.86378032e+00 8.86208219e+00 8.85970481e+00 8.85664817e+00 8.85291229e+00 8.84849715e+00 8.84340276e+00 8.83762911e+00
3.96067065e+00 4.03504877e+00 4.10874764e+00 4.18176726e+00 4.25410762e+00 4.32576873e+00 4.39675060e+00 4.46705320e+00 4.53667656e+00 4.60562066e+00 4.67388552e+00 4.74147112e+00 4.80837746e+00 4.87460456e+00 4.94015240e+00 5.00502099e+00 5.06921033e+00 5.13272042e+00 5.19555125e+00 5.25770283e+00 5.31917516e+00 5.37996824e+00 5.44008206e+00 5.49951664e+00 5.55827196e+00 5.61634803e+00 5.67374484e+00 5.73046240e+00 5.78650072e+00 5.84185978e+00 5.89653958e+00 5.95054014e+00 6.00386144e+00 6.05650349e+00 6.10846629e+00 6.15974983e+00 6.21035413e+00 6.26027917e+00 6.30952496e+00 6.35809149e+00 6.40597878e+00 6.45318681e+00 6.49971559e+00 6.54556512e+00 6.59073539e+00 6.63522641e+00 6.67903818e+00 6.72217070e+00 6.76462397e+00 6.80639798e+00 6.84749274e+00 6.88790825e+00 6.92764451e+00 6.96670152e+00 7.00507927e+00 7.04277777e+00 7.07979702e+00 7.11613701e+00 7.15179776e+00 7.18677925e+00 7.22108149e+00 7.25470447e+00 7.28764821e+00 7.31991269e+00 7.35149792e+00 7.38240390e+00 7.41263062e+00 7.44217810e+00 7.47104632e+00 7.49923529e+00 7.52674500e+00 7.55357547e+00 7.57972668e+00 7.60519864e+00 7.62999135e+00 7.65410480e+00 7.67753900e+00 7.70029395e+00 7.72236965e+00 7.74376610e+00 7.76448329e+00 7.78452123e+00 7.80387992e+00 7.82255936e+00 7.84055955e+00 7.85788048e+00 7.87452216e+00 7.89048459e+00 7.90576776e+00 7.92037169e+00 7.93429636e+00 7.94754178e+00 7.96010794e+00 7.97199486e+00 7.98320252e+00 7.99373093e+00 8.00358009e+00 8.01274999e+00 8.02124065e+00 8.02905205e+00 8.03618420e+00 8.04263709e+00 8.04841074e+00 8.05350513e+00 8.08280578e+00 8.11710802e+00 8.15073100e+00 8.18367474e+00 8.21593922e+00 8.24752445e+00 8.27843043e+00 8.30865715e+00 8.33820463e+00 8.36707285e+00 8.39526182e+00 8.42277153e+00 8.44960200e+00 8.47575321e+00 8.50122517e+00 8.52601787e+00 8.55013133e+00 8.57356553e+00 8.59632048e+00 8.61839618e+00 8.63979263e+00 8.66050982e+00 8.68054776e+00 8.69990645e+00 8.71858589e+00 8.73658608e+00 8.75563605e+00 8.77431549e+00 8.79231567e+00 8.80963661e+00 8.82627829e+00 8.84224071e+00 8.85752389e+00 8.87212781e+00 8.88605248e+00 8.89929790e+00 8.91186407e+00 8.92375099e+00 8.93495865e+00 8.94548706e+00 8.95533622e+00 8.96450612e+00 8.97299677e+00 8.98080817e+00 8.98794032e+00 8.99439322e+00 9.00016686e+00 9.00526126e+00 9.00967640e+00 9.01341228e+00 9.01646892e+00 9.01884630e+00 9.02054443e+00 9.02156331e+00 9.02190294e+00 9.02156331e+00 9.02054443e+00 9.01884630e+00 9.01646892e+00 9.01341228e+00 9.00967640e+00 9.00526126e+00 9.00016686e+00 8.99439322e+00 8.98794032e+00 8.98080817e+00 8.97299677e+00 8.96450612e+00 8.95533622e+00 8.94548706e+00 8.93495865e+00 8.92375099e+00 8.91186407e+00 8.89929790e+00 8.88605248e+00 8.87212781e+00 8.85752389e+00 8.84224071e+00 8.82966126e+00 8.83407640e+00 8.83781228e+00 8.84086892e+00 8.84324630e+00 8.84494443e+00 8.84596331e+00 8.84630294e+00 8.84596331e+00 8.84494443e+00 8.84324630e+00 8.84086892e+00 8.83781228e+00 8.83407640e+00 8.82966126e+00 8.82456686e+00 8.81879322e+00
3.93293051e+00 4.00730864e+00 4.08100751e+00 4.15402713e+00 4.22636749e+00 4.29802860e+00 4.36901046e+00 4.43931307e+00 4.50893643e+00 4.57788053e+00 4.64614539e+00 4.71373099e+00 4.78063733e+00 4.84686443e+00 4.91241227e+00 4.97728086e+00 5.04147020e+00 5.10498029e+00 5.16781112e+00 5.22996270e+00 5.29143503e+00 5.35222811e+00 5.41234193e+00 5.47177651e+00 5.53053183e+00 5.58860790e+00 5.64600471e+00 5.70272227e+00 5.75876059e+00 5.81411964e+00 5.86879945e+00 5.92280001e+00 5.97612131e+00 6.02876336e+00 6.08072616e+00 6.13200970e+00 6.18261400e+00 6.23253904e+00 6.28178482e+00 6.33035136e+00 6.37823865e+00 6.42544668e+00 6.47197546e+00 6.51782498e+00 6.56299526e+00 6.60748628e+00 6.65129805e+00 6.69443057e+00 6.73688384e+00 6.77865785e+00 6.81975261e+00 6.86016812e+00 6.89990438e+00 6.93896139e+00 6.97733914e+00 7.01503764e+00 7.05205689e+00 7.08839688e+00 7.12405763e+00 7.15903912e+00 7.19334136e+00 7.22696434e+00 7.25990808e+00 7.29217256e+00 7.32375779e+00 7.35466377e+00 7.38489049e+00 7.41443797e+00 7.44330619e+00 7.47149516e+00 7.49900487e+00 7.52583534e+00 7.55198655e+00 7.57745851e+00 7.60225122e+00 7.62636467e+00 7.64979887e+00 7.67255382e+00 7.69462952e+00 7.71602597e+00 7.73674316e+00 7.75678110e+00 7.77613979e+00 7.79481923e+00 7.81281942e+00 7.83014035e+00 7.84678203e+00 7.86274446e+00 7.87802763e+00 7.89263156e+00 7.90655623e+00 7.91980165e+00 7.93236781e+00 7.94425473e+00 7.95546239e+00 7.96599080e+00 7.97583996e+00 7.98500986e+00 7.99350052e+00 8.00131192e+00 8.00844407e+00 8.01489696e+00 8.02067061e+00 8.02576500e+00 8.05849035e+00 8.09279259e+00 8.12641558e+00 8.15935931e+00 8.19162380e+00 8.22320903e+00 8.25411500e+00 8.28434173e+00 8.31388920e+00 8.34275742e+00 8.37094639e+00 8.39845611e+00 8.42528657e+00 8.45143778e+00 8.47690974e+00 8.50170245e+00 8.52581591e+00 8.54925011e+00 8.57200506e+00 8.59408076e+00 8.61547721e+00 8.63619440e+00 8.65623234e+00 8.67600139e+00 8.69671859e+00 8.71675653e+00 8.73611522e+00 8.75479466e+00 8.77279484e+00 8.79011577e+00 8.80675745e+00 8.82271988e+00 8.83800306e+00 8.85260698e+00 8.86653165e+00 8.87977707e+00 8.89234324e+00 8.90423015e+00 8.91543782e+00 8.92596623e+00 8.93581538e+00 8.94498529e+00 8.95347594e+00 8.96128734e+00 8.96841949e+00 8.97487239e+00 8.98064603e+00 8.98574042e+00 8.99015556e+00 8.99389145e+00 8.99694809e+00 8.99932547e+00 9.00102360e+00 9.00204248e+00 9.00238210e+00 9.00204248e+00 9.00102360e+00 8.99932547e+00 8.99694809e+00 8.99389145e+00 8.99015556e+00 8.98574042e+00 8.98064603e+00 8.97487239e+00 8.96841949e+00 8.96128734e+00 8.95347594e+00 8.94498529e+00 8.93581538e+00 8.92596623e+00 8.91543782e+00 8.90423015e+00 8.89234324e+00 8.87977707e+00 8.86653165e+00 8.85260698e+00 8.83800306e+00 8.82271988e+00 8.81014042e+00 8.81455556e+00 8.81829145e+00 8.82134809e+00 8.82372547e+00 8.82542360e+00 8.82644248e+00 8.82678210e+00 8.82644248e+00 8.82542360e+00 8.82372547e+00 8.82134809e+00 8.81829145e+00 8.81455556e+00 8.81014042e+00 8.80504603e+00 8.79927239e+00
3.90450544e+00 3.97888357e+00 4.05258244e+00 4.12560205e+00 4.19794242e+00 4.26960353e+00 4.34058539e+00 4.41088800e+00 4.48051136e+00 4.54945546e+00 4.61772031e+00 4.68530591e+00 4.75221226e+00 4.81843936e+00 4.88398720e+00 4.94885579e+00 5.01304513e+00 5.07655522e+00 5.13938605e+00 5.20153763e+00 5.26300996e+00 5.32380304e+00 5.38391686e+00 5.44335143e+00 5.50210676e+00 5.56018282e+00 5.61757964e+00 5.67429720e+00 5.73033551e+00 5.78569457e+00 5.84037438e+00 5.89437493e+00 5.94769624e+00 6.00033829e+00 6.05230108e+00 6.10358463e+00 6.15418892e+00 6.20411396e+00 6.25335975e+00 6.30192629e+00 6.34981357e+00 6.39702161e+00 6.44355039e+00 6.48939991e+00 6.53457019e+00 6.57906121e+00 6.62287298e+00 6.66600550e+00 6.70845877e+00 6.75023278e+00 6.79132754e+00 6.83174305e+00 6.87147931e+00 6.91053631e+00 6.94891407e+00 6.98661257e+00 7.02363181e+00 7.05997181e+00 7.09563255e+00 7.13061405e+00 7.16491628e+00 7.19853927e+00 7.23148301e+00 7.26374749e+00 7.29533272e+00 7.32623870e+00 7.35646542e+00 7.38601289e+00 7.41488112e+00 7.44307008e+00 7.47057980e+00 7.49741026e+00 7.52356148e+00 7.54903344e+00 7.57382614e+00 7.59793960e+00 7.62137380e+00 7.64412875e+00 7.66620445e+00 7.68760090e+00 7.70831809e+00 7.72835603e+00 7.74771472e+00 7.76639416e+00 7.78439434e+00 7.80171528e+00 7.81835696e+00 7.83431939e+00 7.84960256e+00 7.86420648e+00 7.87813116e+00 7.89137657e+00 7.90394274e+00 7.91582966e+00 7.92703732e+00 7.93756573e+00 7.94741489e+00 7.95658479e+00 7.96507544e+00 7.97288685e+00 7.98001899e+00 7.98647189e+00 7.99224554e+00 7.99850850e+00 8.03348999e+00 8.06779223e+00 8.10141521e+00 8.13435895e+00 8.16662343e+00 8.19820866e+00 8.22911464e+00 8.25934137e+00 8.28888884e+00 8.31775706e+00 8.34594603e+00 8.37345574e+00 8.40028621e+00 8.42643742e+00 8.45190938e+00 8.47670209e+00 8.50081554e+00 8.52424975e+00 8.54700470e+00 8.56908039e+00 8.59047684e+00 8.61232348e+00 8.63439917e+00 8.65579562e+00 8.67651281e+00 8.69655076e+00 8.71590944e+00 8.73458888e+00 8.75258907e+00 8.76991000e+00 8.78655168e+00 8.80251411e+00 8.81779728e+00 8.83240121e+00 8.84632588e+00 8.85957130e+00 8.87213746e+00 8.88402438e+00 8.89523204e+00 8.90576045e+00 8.91560961e+00 8.92477951e+00 8.93327017e+00 8.94108157e+00 8.94821372e+00 8.95466661e+00 8.96044026e+00 8.96553465e+00 8.96994979e+00 8.97368568e+00 8.97674231e+00 8.97911970e+00 8.98081783e+00 8.98183670e+00 8.98217633e+00 8.98183670e+00 8.98081783e+00 8.97911970e+00 8.97674231e+00 8.97368568e+00 8.96994979e+00 8.96553465e+00 8.96044026e+00 8.95466661e+00 8.94821372e+00 8.94108157e+00 8.93327017e+00 8.92477951e+00 8.91560961e+00 8.90576045e+00 8.89523204e+00 8.88402438e+00 8.87213746e+00 8.85957130e+00 8.84632588e+00 8.83240121e+00 8.81779728e+00 8.80251411e+00 8.78993465e+00 8.79434979e+00 8.79808568e+00 8.80114231e+00 8.80351970e+00 8.80521783e+00 8.80623670e+00 8.80657633e+00 8.80623670e+00 8.80521783e+00 8.80351970e+00 8.80114231e+00 8.79808568e+00 8.79434979e+00 8.78993465e+00 8.78484026e+00 8.77906661e+00
3.87539543e+00 3.94977355e+00 4.02347242e+00 4.09649204e+00 4.16883241e+00 4.24049352e+00 4.31147538e+00 4.38177799e+00 4.45140135e+00 4.52034545e+00 4.58861030e+00 4.65619590e+00 4.72310225e+00 4.78932934e+00 4.85487719e+00 4.91974578e+00 4.98393512e+00 5.04744520e+00 5.11027604e+00 5.17242762e+00 5.23389995e+00 5.29469302e+00 5.35480685e+00 5.41424142e+00 5.47299674e+00 5.53107281e+00 5.58846963e+00 5.64518719e+00 5.70122550e+00 5.75658456e+00 5.81126437e+00 5.86526492e+00 5.91858622e+00 5.97122827e+00 6.02319107e+00 6.07447462e+00 6.12507891e+00 6.17500395e+00 6.22424974e+00 6.27281628e+00 6.32070356e+00 6.36791159e+00 6.41444037e+00 6.46028990e+00 6.50546018e+00 6.54995120e+00 6.59376297e+00 6.63689549e+00 6.67934875e+00 6.72112277e+00 6.76221753e+00 6.80263304e+00 6.84236930e+00 6.88142630e+00 6.91980405e+00 6.95750255e+00 6.99452180e+00 7.03086180e+00 7.06652254e+00 7.10150403e+00 7.13580627e+00 7.16942926e+00 7.20237299e+00 7.23463747e+00 7.26622270e+00 7.29712868e+00 7.32735541e+00 7.35690288e+00 7.38577110e+00 7.41396007e+00 7.44146979e+00 7.46830025e+00 7.49445146e+00 7.51992342e+00 7.54471613e+00 7.56882959e+00 7.59226379e+00 7.61501874e+00 7.63709444e+00 7.65849088e+00 7.67920808e+00 7.69924602e+00 7.71860471e+00 7.73728415e+00 7.75528433e+00 7.77260526e+00 7.78924694e+00 7.80520937e+00 7.82049255e+00 7.83509647e+00 7.84902114e+00 7.86226656e+00 7.87483273e+00 7.88671964e+00 7.89792731e+00 7.90845572e+00 7.91830487e+00 7.92747478e+00 7.93596543e+00 7.94377683e+00 7.95090898e+00 7.95736188e+00 7.96313552e+00 7.97282319e+00 8.00780468e+00 8.04210692e+00 8.07572991e+00 8.10867364e+00 8.14093813e+00 8.17252336e+00 8.20342933e+00 8.23365606e+00 8.26320353e+00 8.29207175e+00 8.32026072e+00 8.34777044e+00 8.37460090e+00 8.40075211e+00 8.42622407e+00 8.45101678e+00 8.47513024e+00 8.49856444e+00 8.52131939e+00 8.54524361e+00 8.56867781e+00 8.59143276e+00 8.61350846e+00 8.63490490e+00 8.65562210e+00 8.67566004e+00 8.69501873e+00 8.71369817e+00 8.73169835e+00 8.74901928e+00 8.76566096e+00 8.78162339e+00 8.79690657e+00 8.81151049e+00 8.82543516e+00 8.83868058e+00 8.85124675e+00 8.86313366e+00 8.87434133e+00 8.88486974e+00 8.89471889e+00 8.90388880e+00 8.91237945e+00 8.92019085e+00 8.92732300e+00 8.93377590e+00 8.93954954e+00 8.94464393e+00 8.94905907e+00 8.95279496e+00 8.95585160e+00 8.95822898e+00 8.95992711e+00 8.96094599e+00 8.96128561e+00 8.96094599e+00 8.95992711e+00 8.95822898e+00 8.95585160e+00 8.95279496e+00 8.94905907e+00 8.94464393e+00 8.93954954e+00 8.93377590e+00 8.92732300e+00 8.92019085e+00 8.91237945e+00 8.90388880e+00 8.89471889e+00 8.88486974e+00 8.87434133e+00 8.86313366e+00 8.85124675e+00 8.83868058e+00 8.82543516e+00 8.81151049e+00 8.79690657e+00 8.78162339e+00 8.76904393e+00 8.77345907e+00 8.77719496e+00 8.78025160e+00 8.78262898e+00 8.78432711e+00 8.78534599e+00 8.78568561e+00 8.78534599e+00 8.78432711e+00 8.78262898e+00 8.78025160e+00 8.77719496e+00 8.77345907e+00 8.76904393e+00 8.76394954e+00 8.75817590e+00
3.84560048e+00 3.91997860e+00 3.99367747e+00 4.06669709e+00 4.13903745e+00 4.21069856e+00 4.28168043e+00 4.35198303e+00 4.42160639e+00 4.49055049e+00 4.55881535e+00 4.62640095e+00 4.69330729e+00 4.75953439e+00 4.82508223e+00 4.88995082e+00 4.95414016e+00 5.01765025e+00 5.08048108e+00 5.14263266e+00 5.20410499e+00 5.26489807e+00 5.32501189e+00 5.38444647e+00 5.44320179e+00 5.50127786e+00 5.55867467e+00 5.61539223e+00 5.67143055e+00 5.72678961e+00 5.78146941e+00 5.83546997e+00 5.88879127e+00 5.94143332e+00 5.99339612e+00 6.04467966e+00 6.09528396e+00 6.14520900e+00 6.19445479e+00 6.24302132e+00 6.29090861e+00 6.33811664e+00 6.38464542e+00 6.43049495e+00 6.47566522e+00 6.52015624e+00 6.56396801e+00 6.60710053e+00 6.64955380e+00 6.69132781e+00 6.73242257e+00 6.77283808e+00 6.81257434e+00 6.85163135e+00 6.89000910e+00 6.92770760e+00 6.96472685e+00 7.00106684e+00 7.03672759e+00 7.07170908e+00 7.10601132e+00 7.13963430e+00 7.17257804e+00 7.20484252e+00 7.23642775e+00 7.26733373e+00 7.29756045e+00 7.32710793e+00 7.35597615e+00 7.38416512e+00 7.41167483e+00 7.43850530e+00 7.46465651e+00 7.49012847e+00 7.51492118e+00 7.53903463e+00 7.56246883e+00 7.58522378e+00 7.60729948e+00 7.62869593e+00 7.64941312e+00 7.66945106e+00 7.68880975e+00 7.70748919e+00 7.72548938e+00 7.74281031e+00 7.75945199e+00 7.77541442e+00 7.79069759e+00 7.80530152e+00 7.81922619e+00 7.83247161e+00 7.84503777e+00 7.85692469e+00 7.86813235e+00 7.87866076e+00 7.88850992e+00 7.89767982e+00 7.90617048e+00 7.91398188e+00 7.92111403e+00 7.92756692e+00 7.93334057e+00 7.94645294e+00 7.98143444e+00 8.01573668e+00 8.04935966e+00 8.08230340e+00 8.11456788e+00 8.14615311e+00 8.17705909e+00 8.20728581e+00 8.23683329e+00 8.26570151e+00 8.29389047e+00 8.32140019e+00 8.34823066e+00 8.37438187e+00 8.39985383e+00 8.42464653e+00 8.44928983e+00 8.47476179e+00 8.49955449e+00 8.52366795e+00 8.54710215e+00 8.56985710e+00 8.59193280e+00 8.61332925e+00 8.63404644e+00 8.65408438e+00 8.67344307e+00 8.69212251e+00 8.71012269e+00 8.72744363e+00 8.74408531e+00 8.76004774e+00 8.77533091e+00 8.78993484e+00 8.80385951e+00 8.81710493e+00 8.82967109e+00 8.84155801e+00 8.85276567e+00 8.86329408e+00 8.87314324e+00 8.88231314e+00 8.89080380e+00 8.89861520e+00 8.90574735e+00 8.91220024e+00 8.91797389e+00 8.92306828e+00 8.92748342e+00 8.93121930e+00 8.93427594e+00 8.93665332e+00 8.93835145e+00 8.93937033e+00 8.93970996e+00 8.93937033e+00 8.93835145e+00 8.93665332e+00 8.93427594e+00 8.93121930e+00 8.92748342e+00 8.92306828e+00 8.91797389e+00 8.91220024e+00 8.90574735e+00 8.89861520e+00 8.89080380e+00 8.88231314e+00 8.87314324e+00 8.86329408e+00 8.85276567e+00 8.84155801e+00 8.82967109e+00 8.81710493e+00 8.80385951e+00 8.78993484e+00 8.77533091e+00 8.76004774e+00 8.74746828e+00 8.75188342e+00 8.75561930e+00 8.75867594e+00 8.76105332e+00 8.76275145e+00 8.76377033e+00 8.76410996e+00 8.76377033e+00 8.76275145e+00 8.76105332e+00 8.75867594e+00 8.75561930e+00 8.75188342e+00 8.74746828e+00 8.74237389e+00 8.73660024e+00
